-0.0004999998957  -0.0004999999888  0.001999986172  0  0  0
-0.0004999998957  -0.0004999999888  0.002999985218  0  0  0
-0.0004999998957  -0.0004999999888  0.003999984264  0  0  0
-0.0004999998957  -0.0004999999888  0.004999983311  0  0  0
-0.0004999998957  -0.0004999999888  0.005999982357  0  0  0
-0.0004999998957  -0.0004999999888  0.006999981403  0  0  0
-0.0004999998957  -0.0004999999888  0.00799998045  0  0  0
-0.0004999998957  -0.0004999999888  0.008999979496  0  0  0
-0.0004999998957  -0.0004999999888  0.009999978542  0  0  0
-0.0004999998957  -0.0004999999888  0.01099997759  0  0  0
-0.0004999998957  -0.0004999999888  0.01199997663  0  0  0
-0.0004999998957  -0.0004999999888  0.01299997568  0  0  0
-0.0004999998957  -0.0004999999888  0.01399997473  0  0  0
-0.0004999998957  -0.0004999999888  0.01499997377  0  0  0
-0.0004999998957  -0.0004999999888  0.01599997282  0  0  0
-0.0004999998957  -0.0004999999888  0.01699997187  0  0  0
-0.0004999998957  -0.0004999999888  0.01799997091  0  0  0
-0.0004999998957  -0.0004999999888  0.01899996996  0  0  0
-0.0004999998957  -0.0004999999888  0.01999996901  0  0  0
-0.0004999998957  1.117587065e-11  -0.01999999881  0  0  0
-0.0004999998957  1.117587065e-11  -0.01899999976  0  0  0
-0.0004999998957  1.117587065e-11  -0.01800000072  0  0  0
-0.0004999998957  1.117587065e-11  -0.01700000167  0  0  0
-0.0004999998957  1.117587065e-11  -0.01600000262  0  0  0
-0.0004999998957  1.117587065e-11  -0.01500000358  0  0  0
-0.0004999998957  1.117587065e-11  -0.01400000453  0  0  0
-0.0004999998957  1.117587065e-11  -0.01300000548  0  0  0
-0.0004999998957  1.117587065e-11  -0.01200000644  0  0  0
-0.0004999998957  1.117587065e-11  -0.01100000739  0  0  0
-0.0004999998957  1.117587065e-11  -0.01000000834  0  0  0
-0.0004999998957  1.117587065e-11  -0.009000009298  0  0  0
-0.0004999998957  1.117587065e-11  -0.008000010252  0  0  0
-0.0004999998957  1.117587065e-11  -0.007000011206  0  0  0
-0.0004999998957  1.117587065e-11  -0.006000012159  0  0  0
-0.0004999998957  1.117587065e-11  -0.005000013113  0  0  0
-0.0004999998957  1.117587065e-11  -0.004000014067  0  0  0
-0.0004999998957  1.117587065e-11  -0.00300001502  0  0  0
-0.0004999998957  1.117587065e-11  -0.002000015974  0  0  0
-0.0004999998957  1.117587065e-11  -0.001000016928  0  0  0
-0.0004999998957  1.117587065e-11  -1.788139343e-08  0  0  0
-0.0004999998957  1.117587065e-11  0.0009999871254  0  0  0
-0.0004999998957  1.117587065e-11  0.001999986172  0  0  0
-0.0004999998957  1.117587065e-11  0.002999985218  0  0  0
-0.0004999998957  1.117587065e-11  0.003999984264  0  0  0
-0.0004999998957  1.117587065e-11  0.004999983311  0  0  0
-0.0004999998957  1.117587065e-11  0.005999982357  0  0  0
-0.0004999998957  1.117587065e-11  0.006999981403  0  0  0
-0.0004999998957  1.117587065e-11  0.00799998045  0  0  0
-0.0004999998957  1.117587065e-11  0.008999979496  0  0  0
-0.0004999998957  1.117587065e-11  0.009999978542  0  0  0
-0.0004999998957  1.117587065e-11  0.01099997759  0  0  0
-0.0004999998957  1.117587065e-11  0.01199997663  0  0  0
-0.0004999998957  1.117587065e-11  0.01299997568  0  0  0
-0.0004999998957  1.117587065e-11  0.01399997473  0  0  0
-0.0004999998957  1.117587065e-11  0.01499997377  0  0  0
-0.0004999998957  1.117587065e-11  0.01599997282  0  0  0
-0.0004999998957  1.117587065e-11  0.01699997187  0  0  0
-0.0004999998957  1.117587065e-11  0.01799997091  0  0  0
-0.0004999998957  1.117587065e-11  0.01899996996  0  0  0
-0.0004999998957  1.117587065e-11  0.01999996901  0  0  0
-0.0004999998957  0.0004999999888  -0.01999999881  0  0  0
-0.0004999998957  0.0004999999888  -0.01899999976  0  0  0
-0.0004999998957  0.0004999999888  -0.01800000072  0  0  0
-0.0004999998957  0.0004999999888  -0.01700000167  0  0  0
-0.0004999998957  0.0004999999888  -0.01600000262  0  0  0
-0.0004999998957  0.0004999999888  -0.01500000358  0  0  0
-0.0004999998957  0.0004999999888  -0.01400000453  0  0  0
-0.0004999998957  0.0004999999888  -0.01300000548  0  0  0
-0.0004999998957  0.0004999999888  -0.01200000644  0  0  0
-0.0004999998957  0.0004999999888  -0.01100000739  0  0  0
-0.0004999998957  0.0004999999888  -0.01000000834  0  0  0
-0.0004999998957  0.0004999999888  -0.009000009298  0  0  0
-0.0004999998957  0.0004999999888  -0.008000010252  0  0  0
-0.0004999998957  0.0004999999888  -0.007000011206  0  0  0
-0.0004999998957  0.0004999999888  -0.006000012159  0  0  0
-0.0004999998957  0.0004999999888  -0.005000013113  0  0  0
-0.0004999998957  0.0004999999888  -0.004000014067  0  0  0
-0.0004999998957  0.0004999999888  -0.00300001502  0  0  0
-0.0004999998957  0.0004999999888  -0.002000015974  0  0  0
-0.0004999998957  0.0004999999888  -0.001000016928  0  0  0
-0.0004999998957  0.0004999999888  -1.788139343e-08  0  0  0
-0.0004999998957  0.0004999999888  0.0009999871254  0  0  0
-0.0004999998957  0.0004999999888  0.001999986172  0  0  0
-0.0004999998957  0.0004999999888  0.002999985218  0  0  0
-0.0004999998957  0.0004999999888  0.003999984264  0  0  0
-0.0004999998957  0.0004999999888  0.004999983311  0  0  0
-0.0004999998957  0.0004999999888  0.005999982357  0  0  0
-0.0004999998957  0.0004999999888  0.006999981403  0  0  0
-0.0004999998957  0.0004999999888  0.00799998045  0  0  0
-0.0004999998957  0.0004999999888  0.008999979496  0  0  0
-0.0004999998957  0.0004999999888  0.009999978542  0  0  0
-0.0004999998957  0.0004999999888  0.01099997759  0  0  0
-0.0004999998957  0.0004999999888  0.01199997663  0  0  0
-0.0004999998957  0.0004999999888  0.01299997568  0  0  0
-0.0004999998957  0.0004999999888  0.01399997473  0  0  0
-0.0004999998957  0.0004999999888  0.01499997377  0  0  0
-0.0004999998957  0.0004999999888  0.01599997282  0  0  0
-0.0004999998957  0.0004999999888  0.01699997187  0  0  0
-0.0004999998957  0.0004999999888  0.01799997091  0  0  0
-0.0004999998957  0.0004999999888  0.01899996996  0  0  0
-0.0004999998957  0.0004999999888  0.01999996901  0  0  0
-0.0004999998957  0.0009999999776  -0.01999999881  0  0  0
-0.0004999998957  0.0009999999776  -0.01899999976  0  0  0
-0.0004999998957  0.0009999999776  -0.01800000072  0  0  0
-0.0004999998957  0.0009999999776  -0.01700000167  0  0  0
-0.0004999998957  0.0009999999776  -0.01600000262  0  0  0
-0.0004999998957  0.0009999999776  -0.01500000358  0  0  0
-0.0004999998957  0.0009999999776  -0.01400000453  0  0  0
-0.0004999998957  0.0009999999776  -0.01300000548  0  0  0
-0.0004999998957  0.0009999999776  -0.01200000644  0  0  0
-0.0004999998957  0.0009999999776  -0.01100000739  0  0  0
-0.0004999998957  0.0009999999776  -0.01000000834  0  0  0
-0.0004999998957  0.0009999999776  -0.009000009298  0  0  0
-0.0004999998957  0.0009999999776  -0.008000010252  0  0  0
-0.0004999998957  0.0009999999776  -0.007000011206  0  0  0
-0.0004999998957  0.0009999999776  -0.006000012159  0  0  0
-0.0004999998957  0.0009999999776  -0.005000013113  0  0  0
-0.0004999998957  0.0009999999776  -0.004000014067  0  0  0
-0.0004999998957  0.0009999999776  -0.00300001502  0  0  0
-0.0004999998957  0.0009999999776  -0.002000015974  0  0  0
-0.0004999998957  0.0009999999776  -0.001000016928  0  0  0
-0.0004999998957  0.0009999999776  -1.788139343e-08  0  0  0
-0.0004999998957  0.0009999999776  0.0009999871254  0  0  0
-0.0004999998957  0.0009999999776  0.001999986172  0  0  0
-0.0004999998957  0.0009999999776  0.002999985218  0  0  0
-0.0004999998957  0.0009999999776  0.003999984264  0  0  0
-0.0004999998957  0.0009999999776  0.004999983311  0  0  0
-0.0004999998957  0.0009999999776  0.005999982357  0  0  0
-0.0004999998957  0.0009999999776  0.006999981403  0  0  0
-0.0004999998957  0.0009999999776  0.00799998045  0  0  0
-0.0004999998957  0.0009999999776  0.008999979496  0  0  0
-0.0004999998957  0.0009999999776  0.009999978542  0  0  0
-0.0004999998957  0.0009999999776  0.01099997759  0  0  0
-0.0004999998957  0.0009999999776  0.01199997663  0  0  0
-0.0004999998957  0.0009999999776  0.01299997568  0  0  0
-0.0004999998957  0.0009999999776  0.01399997473  0  0  0
-0.0004999998957  0.0009999999776  0.01499997377  0  0  0
-0.0004999998957  0.0009999999776  0.01599997282  0  0  0
-0.0004999998957  0.0009999999776  0.01699997187  0  0  0
-0.0004999998957  0.0009999999776  0.01799997091  0  0  0
-0.0004999998957  0.0009999999776  0.01899996996  0  0  0
-0.0004999998957  0.0009999999776  0.01999996901  0  0  0
-0.0003999998793  -0.0009999999776  -0.01999999881  0  0  0
-0.0003999998793  -0.0009999999776  -0.01899999976  0  0  0
-0.0003999998793  -0.0009999999776  -0.01800000072  0  0  0
-0.0003999998793  -0.0009999999776  -0.01700000167  0  0  0
-0.0003999998793  -0.0009999999776  -0.01600000262  0  0  0
-0.0003999998793  -0.0009999999776  -0.01500000358  0  0  0
-0.0003999998793  -0.0009999999776  -0.01400000453  0  0  0
-0.0003999998793  -0.0009999999776  -0.01300000548  0  0  0
-0.0003999998793  -0.0009999999776  -0.01200000644  0  0  0
-0.0003999998793  -0.0009999999776  -0.01100000739  0  0  0
-0.0003999998793  -0.0009999999776  -0.01000000834  0  0  0
-0.0003999998793  -0.0009999999776  -0.009000009298  0  0  0
-0.0003999998793  -0.0009999999776  -0.008000010252  0  0  0
-0.0003999998793  -0.0009999999776  -0.007000011206  0  0  0
-0.0003999998793  -0.0009999999776  -0.006000012159  0  0  0
-0.0003999998793  -0.0009999999776  -0.005000013113  0  0  0
-0.0003999998793  -0.0009999999776  -0.004000014067  0  0  0
-0.0003999998793  -0.0009999999776  -0.00300001502  0  0  0
-0.0003999998793  -0.0009999999776  -0.002000015974  0  0  0
-0.0003999998793  -0.0009999999776  -0.001000016928  0  0  0
-0.0003999998793  -0.0009999999776  -1.788139343e-08  0  0  0
-0.0003999998793  -0.0009999999776  0.0009999871254  0  0  0
-0.0003999998793  -0.0009999999776  0.001999986172  0  0  0
-0.0003999998793  -0.0009999999776  0.002999985218  0  0  0
-0.0003999998793  -0.0009999999776  0.003999984264  0  0  0
-0.0003999998793  -0.0009999999776  0.004999983311  0  0  0
-0.0003999998793  -0.0009999999776  0.005999982357  0  0  0
-0.0003999998793  -0.0009999999776  0.006999981403  0  0  0
-0.0003999998793  -0.0009999999776  0.00799998045  0  0  0
-0.0003999998793  -0.0009999999776  0.008999979496  0  0  0
-0.0003999998793  -0.0009999999776  0.009999978542  0  0  0
-0.0003999998793  -0.0009999999776  0.01099997759  0  0  0
-0.0003999998793  -0.0009999999776  0.01199997663  0  0  0
-0.0003999998793  -0.0009999999776  0.01299997568  0  0  0
-0.0003999998793  -0.0009999999776  0.01399997473  0  0  0
-0.0003999998793  -0.0009999999776  0.01499997377  0  0  0
-0.0003999998793  -0.0009999999776  0.01599997282  0  0  0
-0.0003999998793  -0.0009999999776  0.01699997187  0  0  0
-0.0003999998793  -0.0009999999776  0.01799997091  0  0  0
-0.0003999998793  -0.0009999999776  0.01899996996  0  0  0
-0.0003999998793  -0.0009999999776  0.01999996901  0  0  0
-0.0003999998793  -0.0004999999888  -0.01999999881  0  0  0
-0.0003999998793  -0.0004999999888  -0.01899999976  0  0  0
-0.0003999998793  -0.0004999999888  -0.01800000072  0  0  0
-0.0003999998793  -0.0004999999888  -0.01700000167  0  0  0
-0.0003999998793  -0.0004999999888  -0.01600000262  0  0  0
-0.0003999998793  -0.0004999999888  -0.01500000358  0  0  0
-0.0003999998793  -0.0004999999888  -0.01400000453  0  0  0
-0.0003999998793  -0.0004999999888  -0.01300000548  0  0  0
-0.0003999998793  -0.0004999999888  -0.01200000644  0  0  0
-0.0003999998793  -0.0004999999888  -0.01100000739  0  0  0
-0.0003999998793  -0.0004999999888  -0.01000000834  0  0  0
-0.0003999998793  -0.0004999999888  -0.009000009298  0  0  0
-0.0003999998793  -0.0004999999888  -0.008000010252  0  0  0
-0.0003999998793  -0.0004999999888  -0.007000011206  0  0  0
-0.0003999998793  -0.0004999999888  -0.006000012159  0  0  0
-0.0003999998793  -0.0004999999888  -0.005000013113  0  0  0
-0.0003999998793  -0.0004999999888  -0.004000014067  0  0  0
-0.0003999998793  -0.0004999999888  -0.00300001502  0  0  0
-0.0003999998793  -0.0004999999888  -0.002000015974  0  0  0
-0.0003999998793  -0.0004999999888  -0.001000016928  0  0  0
-0.0003999998793  -0.0004999999888  -1.788139343e-08  0  0  0
-0.0003999998793  -0.0004999999888  0.0009999871254  0  0  0
-0.0003999998793  -0.0004999999888  0.001999986172  0  0  0
-0.0003999998793  -0.0004999999888  0.002999985218  0  0  0
-0.0003999998793  -0.0004999999888  0.003999984264  0  0  0
-0.0003999998793  -0.0004999999888  0.004999983311  0  0  0
-0.0003999998793  -0.0004999999888  0.005999982357  0  0  0
-0.0003999998793  -0.0004999999888  0.006999981403  0  0  0
-0.0003999998793  -0.0004999999888  0.00799998045  0  0  0
-0.0003999998793  -0.0004999999888  0.008999979496  0  0  0
-0.0003999998793  -0.0004999999888  0.009999978542  0  0  0
-0.0003999998793  -0.0004999999888  0.01099997759  0  0  0
-0.0003999998793  -0.0004999999888  0.01199997663  0  0  0
-0.0003999998793  -0.0004999999888  0.01299997568  0  0  0
-0.0003999998793  -0.0004999999888  0.01399997473  0  0  0
-0.0003999998793  -0.0004999999888  0.01499997377  0  0  0
-0.0003999998793  -0.0004999999888  0.01599997282  0  0  0
-0.0003999998793  -0.0004999999888  0.01699997187  0  0  0
-0.0003999998793  -0.0004999999888  0.01799997091  0  0  0
-0.0003999998793  -0.0004999999888  0.01899996996  0  0  0
-0.0003999998793  -0.0004999999888  0.01999996901  0  0  0
-0.0003999998793  1.117587065e-11  -0.01999999881  0  0  0
-0.0003999998793  1.117587065e-11  -0.01899999976  0  0  0
-0.0003999998793  1.117587065e-11  -0.01800000072  0  0  0
-0.0003999998793  1.117587065e-11  -0.01700000167  0  0  0
-0.0003999998793  1.117587065e-11  -0.01600000262  0  0  0
-0.0003999998793  1.117587065e-11  -0.01500000358  0  0  0
-0.0003999998793  1.117587065e-11  -0.01400000453  0  0  0
-0.0003999998793  1.117587065e-11  -0.01300000548  0  0  0
-0.0003999998793  1.117587065e-11  -0.01200000644  0  0  0
-0.0003999998793  1.117587065e-11  -0.01100000739  0  0  0
-0.0003999998793  1.117587065e-11  -0.01000000834  0  0  0
-0.0003999998793  1.117587065e-11  -0.009000009298  0  0  0
-0.0003999998793  1.117587065e-11  -0.008000010252  0  0  0
-0.0003999998793  1.117587065e-11  -0.007000011206  0  0  0
-0.0003999998793  1.117587065e-11  -0.006000012159  0  0  0
-0.0003999998793  1.117587065e-11  -0.005000013113  0  0  0
-0.0003999998793  1.117587065e-11  -0.004000014067  0  0  0
-0.0003999998793  1.117587065e-11  -0.00300001502  0  0  0
-0.0003999998793  1.117587065e-11  -0.002000015974  0  0  0
-0.0003999998793  1.117587065e-11  -0.001000016928  0  0  0
-0.0003999998793  1.117587065e-11  -1.788139343e-08  0  0  0
-0.0003999998793  1.117587065e-11  0.0009999871254  0  0  0
-0.0003999998793  1.117587065e-11  0.001999986172  0  0  0
-0.0003999998793  1.117587065e-11  0.002999985218  0  0  0
-0.0003999998793  1.117587065e-11  0.003999984264  0  0  0
-0.0003999998793  1.117587065e-11  0.004999983311  0  0  0
-0.0003999998793  1.117587065e-11  0.005999982357  0  0  0
-0.0003999998793  1.117587065e-11  0.006999981403  0  0  0
-0.0003999998793  1.117587065e-11  0.00799998045  0  0  0
-0.0003999998793  1.117587065e-11  0.008999979496  0  0  0
-0.0003999998793  1.117587065e-11  0.009999978542  0  0  0
-0.0003999998793  1.117587065e-11  0.01099997759  0  0  0
-0.0003999998793  1.117587065e-11  0.01199997663  0  0  0
-0.0003999998793  1.117587065e-11  0.01299997568  0  0  0
-0.0003999998793  1.117587065e-11  0.01399997473  0  0  0
-0.0003999998793  1.117587065e-11  0.01499997377  0  0  0
-0.0003999998793  1.117587065e-11  0.01599997282  0  0  0
-0.0003999998793  1.117587065e-11  0.01699997187  0  0  0
-0.0003999998793  1.117587065e-11  0.01799997091  0  0  0
-0.0003999998793  1.117587065e-11  0.01899996996  0  0  0
-0.0003999998793  1.117587065e-11  0.01999996901  0  0  0
-0.0003999998793  0.0004999999888  -0.01999999881  0  0  0
-0.0003999998793  0.0004999999888  -0.01899999976  0  0  0
-0.0003999998793  0.0004999999888  -0.01800000072  0  0  0
-0.0003999998793  0.0004999999888  -0.01700000167  0  0  0
-0.0003999998793  0.0004999999888  -0.01600000262  0  0  0
-0.0003999998793  0.0004999999888  -0.01500000358  0  0  0
-0.0003999998793  0.0004999999888  -0.01400000453  0  0  0
-0.0003999998793  0.0004999999888  -0.01300000548  0  0  0
-0.0003999998793  0.0004999999888  -0.01200000644  0  0  0
-0.0003999998793  0.0004999999888  -0.01100000739  0  0  0
-0.0003999998793  0.0004999999888  -0.01000000834  0  0  0
-0.0003999998793  0.0004999999888  -0.009000009298  0  0  0
-0.0003999998793  0.0004999999888  -0.008000010252  0  0  0
-0.0003999998793  0.0004999999888  -0.007000011206  0  0  0
-0.0003999998793  0.0004999999888  -0.006000012159  0  0  0
-0.0003999998793  0.0004999999888  -0.005000013113  0  0  0
-0.0003999998793  0.0004999999888  -0.004000014067  0  0  0
-0.0003999998793  0.0004999999888  -0.00300001502  0  0  0
-0.0003999998793  0.0004999999888  -0.002000015974  0  0  0
-0.0003999998793  0.0004999999888  -0.001000016928  0  0  0
-0.0003999998793  0.0004999999888  -1.788139343e-08  0  0  0
-0.0003999998793  0.0004999999888  0.0009999871254  0  0  0
-0.0003999998793  0.0004999999888  0.001999986172  0  0  0
-0.0003999998793  0.0004999999888  0.002999985218  0  0  0
-0.0003999998793  0.0004999999888  0.003999984264  0  0  0
-0.0003999998793  0.0004999999888  0.004999983311  0  0  0
-0.0003999998793  0.0004999999888  0.005999982357  0  0  0
-0.0003999998793  0.0004999999888  0.006999981403  0  0  0
-0.0003999998793  0.0004999999888  0.00799998045  0  0  0
-0.0003999998793  0.0004999999888  0.008999979496  0  0  0
-0.0003999998793  0.0004999999888  0.009999978542  0  0  0
-0.0003999998793  0.0004999999888  0.01099997759  0  0  0
-0.0003999998793  0.0004999999888  0.01199997663  0  0  0
-0.0003999998793  0.0004999999888  0.01299997568  0  0  0
-0.0003999998793  0.0004999999888  0.01399997473  0  0  0
-0.0003999998793  0.0004999999888  0.01499997377  0  0  0
-0.0003999998793  0.0004999999888  0.01599997282  0  0  0
-0.0003999998793  0.0004999999888  0.01699997187  0  0  0
-0.0003999998793  0.0004999999888  0.01799997091  0  0  0
-0.0003999998793  0.0004999999888  0.01899996996  0  0  0
-0.0003999998793  0.0004999999888  0.01999996901  0  0  0
-0.0003999998793  0.0009999999776  -0.01999999881  0  0  0
-0.0003999998793  0.0009999999776  -0.01899999976  0  0  0
-0.0003999998793  0.0009999999776  -0.01800000072  0  0  0
-0.0003999998793  0.0009999999776  -0.01700000167  0  0  0
-0.0003999998793  0.0009999999776  -0.01600000262  0  0  0
-0.0003999998793  0.0009999999776  -0.01500000358  0  0  0
-0.0003999998793  0.0009999999776  -0.01400000453  0  0  0
-0.0003999998793  0.0009999999776  -0.01300000548  0  0  0
-0.0003999998793  0.0009999999776  -0.01200000644  0  0  0
-0.0003999998793  0.0009999999776  -0.01100000739  0  0  0
-0.0003999998793  0.0009999999776  -0.01000000834  0  0  0
-0.0003999998793  0.0009999999776  -0.009000009298  0  0  0
-0.0003999998793  0.0009999999776  -0.008000010252  0  0  0
-0.0003999998793  0.0009999999776  -0.007000011206  0  0  0
-0.0003999998793  0.0009999999776  -0.006000012159  0  0  0
-0.0003999998793  0.0009999999776  -0.005000013113  0  0  0
-0.0003999998793  0.0009999999776  -0.004000014067  0  0  0
-0.0003999998793  0.0009999999776  -0.00300001502  0  0  0
-0.0003999998793  0.0009999999776  -0.002000015974  0  0  0
-0.0003999998793  0.0009999999776  -0.001000016928  0  0  0
-0.0003999998793  0.0009999999776  -1.788139343e-08  0  0  0
-0.0003999998793  0.0009999999776  0.0009999871254  0  0  0
-0.0003999998793  0.0009999999776  0.001999986172  0  0  0
-0.0003999998793  0.0009999999776  0.002999985218  0  0  0
-0.0003999998793  0.0009999999776  0.003999984264  0  0  0
-0.0003999998793  0.0009999999776  0.004999983311  0  0  0
-0.0003999998793  0.0009999999776  0.005999982357  0  0  0
-0.0003999998793  0.0009999999776  0.006999981403  0  0  0
-0.0003999998793  0.0009999999776  0.00799998045  0  0  0
-0.0003999998793  0.0009999999776  0.008999979496  0  0  0
-0.0003999998793  0.0009999999776  0.009999978542  0  0  0
-0.0003999998793  0.0009999999776  0.01099997759  0  0  0
-0.0003999998793  0.0009999999776  0.01199997663  0  0  0
-0.0003999998793  0.0009999999776  0.01299997568  0  0  0
-0.0003999998793  0.0009999999776  0.01399997473  0  0  0
-0.0003999998793  0.0009999999776  0.01499997377  0  0  0
-0.0003999998793  0.0009999999776  0.01599997282  0  0  0
-0.0003999998793  0.0009999999776  0.01699997187  0  0  0
-0.0003999998793  0.0009999999776  0.01799997091  0  0  0
-0.0003999998793  0.0009999999776  0.01899996996  0  0  0
-0.0003999998793  0.0009999999776  0.01999996901  0  0  0
-0.0002999998862  -0.0009999999776  -0.01999999881  0  0  0
-0.0002999998862  -0.0009999999776  -0.01899999976  0  0  0
-0.0002999998862  -0.0009999999776  -0.01800000072  0  0  0
-0.0002999998862  -0.0009999999776  -0.01700000167  0  0  0
-0.0002999998862  -0.0009999999776  -0.01600000262  0  0  0
-0.0002999998862  -0.0009999999776  -0.01500000358  0  0  0
-0.0002999998862  -0.0009999999776  -0.01400000453  0  0  0
-0.0002999998862  -0.0009999999776  -0.01300000548  0  0  0
-0.0002999998862  -0.0009999999776  -0.01200000644  0  0  0
-0.0002999998862  -0.0009999999776  -0.01100000739  0  0  0
-0.0002999998862  -0.0009999999776  -0.01000000834  0  0  0
-0.0002999998862  -0.0009999999776  -0.009000009298  0  0  0
-0.0002999998862  -0.0009999999776  -0.008000010252  0  0  0
-0.0002999998862  -0.0009999999776  -0.007000011206  0  0  0
-0.0002999998862  -0.0009999999776  -0.006000012159  0  0  0
-0.0002999998862  -0.0009999999776  -0.005000013113  0  0  0
-0.0002999998862  -0.0009999999776  -0.004000014067  0  0  0
-0.0002999998862  -0.0009999999776  -0.00300001502  0  0  0
-0.0002999998862  -0.0009999999776  -0.002000015974  0  0  0
-0.0002999998862  -0.0009999999776  -0.001000016928  0  0  0
-0.0002999998862  -0.0009999999776  -1.788139343e-08  0  0  0
-0.0002999998862  -0.0009999999776  0.0009999871254  0  0  0
-0.0002999998862  -0.0009999999776  0.001999986172  0  0  0
-0.0002999998862  -0.0009999999776  0.002999985218  0  0  0
-0.0002999998862  -0.0009999999776  0.003999984264  0  0  0
-0.0002999998862  -0.0009999999776  0.004999983311  0  0  0
-0.0002999998862  -0.0009999999776  0.005999982357  0  0  0
-0.0002999998862  -0.0009999999776  0.006999981403  0  0  0
-0.0002999998862  -0.0009999999776  0.00799998045  0  0  0
-0.0002999998862  -0.0009999999776  0.008999979496  0  0  0
-0.0002999998862  -0.0009999999776  0.009999978542  0  0  0
-0.0002999998862  -0.0009999999776  0.01099997759  0  0  0
-0.0002999998862  -0.0009999999776  0.01199997663  0  0  0
-0.0002999998862  -0.0009999999776  0.01299997568  0  0  0
-0.0002999998862  -0.0009999999776  0.01399997473  0  0  0
-0.0002999998862  -0.0009999999776  0.01499997377  0  0  0
-0.0002999998862  -0.0009999999776  0.01599997282  0  0  0
-0.0002999998862  -0.0009999999776  0.01699997187  0  0  0
-0.0002999998862  -0.0009999999776  0.01799997091  0  0  0
-0.0002999998862  -0.0009999999776  0.01899996996  0  0  0
-0.0002999998862  -0.0009999999776  0.01999996901  0  0  0
-0.0002999998862  -0.0004999999888  -0.01999999881  0  0  0
-0.0002999998862  -0.0004999999888  -0.01899999976  0  0  0
-0.0002999998862  -0.0004999999888  -0.01800000072  0  0  0
-0.0002999998862  -0.0004999999888  -0.01700000167  0  0  0
-0.0002999998862  -0.0004999999888  -0.01600000262  0  0  0
-0.0002999998862  -0.0004999999888  -0.01500000358  0  0  0
-0.0002999998862  -0.0004999999888  -0.01400000453  0  0  0
-0.0002999998862  -0.0004999999888  -0.01300000548  0  0  0
-0.0002999998862  -0.0004999999888  -0.01200000644  0  0  0
-0.0002999998862  -0.0004999999888  -0.01100000739  0  0  0
-0.0002999998862  -0.0004999999888  -0.01000000834  0  0  0
-0.0002999998862  -0.0004999999888  -0.009000009298  0  0  0
-0.0002999998862  -0.0004999999888  -0.008000010252  0  0  0
-0.0002999998862  -0.0004999999888  -0.007000011206  0  0  0
-0.0002999998862  -0.0004999999888  -0.006000012159  0  0  0
-0.0002999998862  -0.0004999999888  -0.005000013113  0  0  0
-0.0002999998862  -0.0004999999888  -0.004000014067  0  0  0
-0.0002999998862  -0.0004999999888  -0.00300001502  0  0  0
-0.0002999998862  -0.0004999999888  -0.002000015974  0  0  0
-0.0002999998862  -0.0004999999888  -0.001000016928  0  0  0
-0.0002999998862  -0.0004999999888  -1.788139343e-08  0  0  0
-0.0002999998862  -0.0004999999888  0.0009999871254  0  0  0
-0.0002999998862  -0.0004999999888  0.001999986172  0  0  0
-0.0002999998862  -0.0004999999888  0.002999985218  0  0  0
-0.0002999998862  -0.0004999999888  0.003999984264  0  0  0
-0.0002999998862  -0.0004999999888  0.004999983311  0  0  0
-0.0002999998862  -0.0004999999888  0.005999982357  0  0  0
-0.0002999998862  -0.0004999999888  0.006999981403  0  0  0
-0.0002999998862  -0.0004999999888  0.00799998045  0  0  0
-0.0002999998862  -0.0004999999888  0.008999979496  0  0  0
-0.0002999998862  -0.0004999999888  0.009999978542  0  0  0
-0.0002999998862  -0.0004999999888  0.01099997759  0  0  0
-0.0002999998862  -0.0004999999888  0.01199997663  0  0  0
-0.0002999998862  -0.0004999999888  0.01299997568  0  0  0
-0.0002999998862  -0.0004999999888  0.01399997473  0  0  0
-0.0002999998862  -0.0004999999888  0.01499997377  0  0  0
-0.0002999998862  -0.0004999999888  0.01599997282  0  0  0
-0.0002999998862  -0.0004999999888  0.01699997187  0  0  0
-0.0002999998862  -0.0004999999888  0.01799997091  0  0  0
-0.0002999998862  -0.0004999999888  0.01899996996  0  0  0
-0.0002999998862  -0.0004999999888  0.01999996901  0  0  0
-0.0002999998862  1.117587065e-11  -0.01999999881  0  0  0
-0.0002999998862  1.117587065e-11  -0.01899999976  0  0  0
-0.0002999998862  1.117587065e-11  -0.01800000072  0  0  0
-0.0002999998862  1.117587065e-11  -0.01700000167  0  0  0
-0.0002999998862  1.117587065e-11  -0.01600000262  0  0  0
-0.0002999998862  1.117587065e-11  -0.01500000358  0  0  0
-0.0002999998862  1.117587065e-11  -0.01400000453  0  0  0
-0.0002999998862  1.117587065e-11  -0.01300000548  0  0  0
-0.0002999998862  1.117587065e-11  -0.01200000644  0  0  0
-0.0002999998862  1.117587065e-11  -0.01100000739  0  0  0
-0.0002999998862  1.117587065e-11  -0.01000000834  0  0  0
-0.0002999998862  1.117587065e-11  -0.009000009298  0  0  0
-0.0002999998862  1.117587065e-11  -0.008000010252  0  0  0
-0.0002999998862  1.117587065e-11  -0.007000011206  0  0  0
-0.0002999998862  1.117587065e-11  -0.006000012159  0  0  0
-0.0002999998862  1.117587065e-11  -0.005000013113  0  0  0
-0.0002999998862  1.117587065e-11  -0.004000014067  0  0  0
-0.0002999998862  1.117587065e-11  -0.00300001502  0  0  0
-0.0002999998862  1.117587065e-11  -0.002000015974  0  0  0
-0.0002999998862  1.117587065e-11  -0.001000016928  0  0  0
-0.0002999998862  1.117587065e-11  -1.788139343e-08  0  0  0
-0.0002999998862  1.117587065e-11  0.0009999871254  0  0  0
-0.0002999998862  1.117587065e-11  0.001999986172  0  0  0
-0.0002999998862  1.117587065e-11  0.002999985218  0  0  0
-0.0002999998862  1.117587065e-11  0.003999984264  0  0  0
-0.0002999998862  1.117587065e-11  0.004999983311  0  0  0
-0.0002999998862  1.117587065e-11  0.005999982357  0  0  0
-0.0002999998862  1.117587065e-11  0.006999981403  0  0  0
-0.0002999998862  1.117587065e-11  0.00799998045  0  0  0
-0.0002999998862  1.117587065e-11  0.008999979496  0  0  0
-0.0002999998862  1.117587065e-11  0.009999978542  0  0  0
-0.0002999998862  1.117587065e-11  0.01099997759  0  0  0
-0.0002999998862  1.117587065e-11  0.01199997663  0  0  0
-0.0002999998862  1.117587065e-11  0.01299997568  0  0  0
-0.0002999998862  1.117587065e-11  0.01399997473  0  0  0
-0.0002999998862  1.117587065e-11  0.01499997377  0  0  0
-0.0002999998862  1.117587065e-11  0.01599997282  0  0  0
-0.0002999998862  1.117587065e-11  0.01699997187  0  0  0
-0.0002999998862  1.117587065e-11  0.01799997091  0  0  0
-0.0002999998862  1.117587065e-11  0.01899996996  0  0  0
-0.0002999998862  1.117587065e-11  0.01999996901  0  0  0
-0.0002999998862  0.0004999999888  -0.01999999881  0  0  0
-0.0002999998862  0.0004999999888  -0.01899999976  0  0  0
-0.0002999998862  0.0004999999888  -0.01800000072  0  0  0
-0.0002999998862  0.0004999999888  -0.01700000167  0  0  0
-0.0002999998862  0.0004999999888  -0.01600000262  0  0  0
-0.0002999998862  0.0004999999888  -0.01500000358  0  0  0
-0.0002999998862  0.0004999999888  -0.01400000453  0  0  0
-0.0002999998862  0.0004999999888  -0.01300000548  0  0  0
-0.0002999998862  0.0004999999888  -0.01200000644  0  0  0
-0.0002999998862  0.0004999999888  -0.01100000739  0  0  0
-0.0002999998862  0.0004999999888  -0.01000000834  0  0  0
-0.0002999998862  0.0004999999888  -0.009000009298  0  0  0
-0.0002999998862  0.0004999999888  -0.008000010252  0  0  0
-0.0002999998862  0.0004999999888  -0.007000011206  0  0  0
-0.0002999998862  0.0004999999888  -0.006000012159  0  0  0
-0.0002999998862  0.0004999999888  -0.005000013113  0  0  0
-0.0002999998862  0.0004999999888  -0.004000014067  0  0  0
-0.0002999998862  0.0004999999888  -0.00300001502  0  0  0
-0.0002999998862  0.0004999999888  -0.002000015974  0  0  0
-0.0002999998862  0.0004999999888  -0.001000016928  0  0  0
-0.0002999998862  0.0004999999888  -1.788139343e-08  0  0  0
-0.0002999998862  0.0004999999888  0.0009999871254  0  0  0
-0.0002999998862  0.0004999999888  0.001999986172  0  0  0
-0.0002999998862  0.0004999999888  0.002999985218  0  0  0
-0.0002999998862  0.0004999999888  0.003999984264  0  0  0
-0.0002999998862  0.0004999999888  0.004999983311  0  0  0
-0.0002999998862  0.0004999999888  0.005999982357  0  0  0
-0.0002999998862  0.0004999999888  0.006999981403  0  0  0
-0.0002999998862  0.0004999999888  0.00799998045  0  0  0
-0.0002999998862  0.0004999999888  0.008999979496  0  0  0
-0.0002999998862  0.0004999999888  0.009999978542  0  0  0
-0.0002999998862  0.0004999999888  0.01099997759  0  0  0
-0.0002999998862  0.0004999999888  0.01199997663  0  0  0
-0.0002999998862  0.0004999999888  0.01299997568  0  0  0
-0.0002999998862  0.0004999999888  0.01399997473  0  0  0
-0.0002999998862  0.0004999999888  0.01499997377  0  0  0
-0.0002999998862  0.0004999999888  0.01599997282  0  0  0
-0.0002999998862  0.0004999999888  0.01699997187  0  0  0
-0.0002999998862  0.0004999999888  0.01799997091  0  0  0
-0.0002999998862  0.0004999999888  0.01899996996  0  0  0
-0.0002999998862  0.0004999999888  0.01999996901  0  0  0
-0.0002999998862  0.0009999999776  -0.01999999881  0  0  0
-0.0002999998862  0.0009999999776  -0.01899999976  0  0  0
-0.0002999998862  0.0009999999776  -0.01800000072  0  0  0
-0.0002999998862  0.0009999999776  -0.01700000167  0  0  0
-0.0002999998862  0.0009999999776  -0.01600000262  0  0  0
-0.0002999998862  0.0009999999776  -0.01500000358  0  0  0
-0.0002999998862  0.0009999999776  -0.01400000453  0  0  0
-0.0002999998862  0.0009999999776  -0.01300000548  0  0  0
-0.0002999998862  0.0009999999776  -0.01200000644  0  0  0
-0.0002999998862  0.0009999999776  -0.01100000739  0  0  0
-0.0002999998862  0.0009999999776  -0.01000000834  0  0  0
-0.0002999998862  0.0009999999776  -0.009000009298  0  0  0
-0.0002999998862  0.0009999999776  -0.008000010252  0  0  0
-0.0002999998862  0.0009999999776  -0.007000011206  0  0  0
-0.0002999998862  0.0009999999776  -0.006000012159  0  0  0
-0.0002999998862  0.0009999999776  -0.005000013113  0  0  0
-0.0002999998862  0.0009999999776  -0.004000014067  0  0  0
-0.0002999998862  0.0009999999776  -0.00300001502  0  0  0
-0.0002999998862  0.0009999999776  -0.002000015974  0  0  0
-0.0002999998862  0.0009999999776  -0.001000016928  0  0  0
-0.0002999998862  0.0009999999776  -1.788139343e-08  0  0  0
-0.0002999998862  0.0009999999776  0.0009999871254  0  0  0
-0.0002999998862  0.0009999999776  0.001999986172  0  0  0
-0.0002999998862  0.0009999999776  0.002999985218  0  0  0
-0.0002999998862  0.0009999999776  0.003999984264  0  0  0
-0.0002999998862  0.0009999999776  0.004999983311  0  0  0
-0.0002999998862  0.0009999999776  0.005999982357  0  0  0
-0.0002999998862  0.0009999999776  0.006999981403  0  0  0
-0.0002999998862  0.0009999999776  0.00799998045  0  0  0
-0.0002999998862  0.0009999999776  0.008999979496  0  0  0
-0.0002999998862  0.0009999999776  0.009999978542  0  0  0
-0.0002999998862  0.0009999999776  0.01099997759  0  0  0
-0.0002999998862  0.0009999999776  0.01199997663  0  0  0
-0.0002999998862  0.0009999999776  0.01299997568  0  0  0
-0.0002999998862  0.0009999999776  0.01399997473  0  0  0
-0.0002999998862  0.0009999999776  0.01499997377  0  0  0
-0.0002999998862  0.0009999999776  0.01599997282  0  0  0
-0.0002999998862  0.0009999999776  0.01699997187  0  0  0
-0.0002999998862  0.0009999999776  0.01799997091  0  0  0
-0.0002999998862  0.0009999999776  0.01899996996  0  0  0
-0.0002999998862  0.0009999999776  0.01999996901  0  0  0
-0.0001999998931  -0.0009999999776  -0.01999999881  0  0  0
-0.0001999998931  -0.0009999999776  -0.01899999976  0  0  0
-0.0001999998931  -0.0009999999776  -0.01800000072  0  0  0
-0.0001999998931  -0.0009999999776  -0.01700000167  0  0  0
-0.0001999998931  -0.0009999999776  -0.01600000262  0  0  0
-0.0001999998931  -0.0009999999776  -0.01500000358  0  0  0
-0.0001999998931  -0.0009999999776  -0.01400000453  0  0  0
-0.0001999998931  -0.0009999999776  -0.01300000548  0  0  0
-0.0001999998931  -0.0009999999776  -0.01200000644  0  0  0
-0.0001999998931  -0.0009999999776  -0.01100000739  0  0  0
-0.0001999998931  -0.0009999999776  -0.01000000834  0  0  0
-0.0001999998931  -0.0009999999776  -0.009000009298  0  0  0
-0.0001999998931  -0.0009999999776  -0.008000010252  0  0  0
-0.0001999998931  -0.0009999999776  -0.007000011206  0  0  0
-0.0001999998931  -0.0009999999776  -0.006000012159  0  0  0
-0.0001999998931  -0.0009999999776  -0.005000013113  0  0  0
-0.0001999998931  -0.0009999999776  -0.004000014067  0  0  0
-0.0001999998931  -0.0009999999776  -0.00300001502  0  0  0
-0.0001999998931  -0.0009999999776  -0.002000015974  0  0  0
-0.0001999998931  -0.0009999999776  -0.001000016928  0  0  0
-0.0001999998931  -0.0009999999776  -1.788139343e-08  0  0  0
-0.0001999998931  -0.0009999999776  0.0009999871254  0  0  0
-0.0001999998931  -0.0009999999776  0.001999986172  0  0  0
-0.0001999998931  -0.0009999999776  0.002999985218  0  0  0
-0.0001999998931  -0.0009999999776  0.003999984264  0  0  0
-0.0001999998931  -0.0009999999776  0.004999983311  0  0  0
-0.0001999998931  -0.0009999999776  0.005999982357  0  0  0
-0.0001999998931  -0.0009999999776  0.006999981403  0  0  0
-0.0001999998931  -0.0009999999776  0.00799998045  0  0  0
-0.0001999998931  -0.0009999999776  0.008999979496  0  0  0
-0.0001999998931  -0.0009999999776  0.009999978542  0  0  0
-0.0001999998931  -0.0009999999776  0.01099997759  0  0  0
-0.0001999998931  -0.0009999999776  0.01199997663  0  0  0
-0.0001999998931  -0.0009999999776  0.01299997568  0  0  0
-0.0001999998931  -0.0009999999776  0.01399997473  0  0  0
-0.0001999998931  -0.0009999999776  0.01499997377  0  0  0
-0.0001999998931  -0.0009999999776  0.01599997282  0  0  0
-0.0001999998931  -0.0009999999776  0.01699997187  0  0  0
-0.0001999998931  -0.0009999999776  0.01799997091  0  0  0
-0.0001999998931  -0.0009999999776  0.01899996996  0  0  0
-0.0001999998931  -0.0009999999776  0.01999996901  0  0  0
-0.0001999998931  -0.0004999999888  -0.01999999881  0  0  0
-0.0001999998931  -0.0004999999888  -0.01899999976  0  0  0
-0.0001999998931  -0.0004999999888  -0.01800000072  0  0  0
-0.0001999998931  -0.0004999999888  -0.01700000167  0  0  0
-0.0001999998931  -0.0004999999888  -0.01600000262  0  0  0
-0.0001999998931  -0.0004999999888  -0.01500000358  0  0  0
-0.0001999998931  -0.0004999999888  -0.01400000453  0  0  0
-0.0001999998931  -0.0004999999888  -0.01300000548  0  0  0
-0.0001999998931  -0.0004999999888  -0.01200000644  0  0  0
-0.0001999998931  -0.0004999999888  -0.01100000739  0  0  0
-0.0001999998931  -0.0004999999888  -0.01000000834  0  0  0
-0.0001999998931  -0.0004999999888  -0.009000009298  0  0  0
-0.0001999998931  -0.0004999999888  -0.008000010252  0  0  0
-0.0001999998931  -0.0004999999888  -0.007000011206  0  0  0
-0.0001999998931  -0.0004999999888  -0.006000012159  0  0  0
-0.0001999998931  -0.0004999999888  -0.005000013113  0  0  0
-0.0001999998931  -0.0004999999888  -0.004000014067  0  0  0
-0.0001999998931  -0.0004999999888  -0.00300001502  0  0  0
-0.0001999998931  -0.0004999999888  -0.002000015974  0  0  0
-0.0001999998931  -0.0004999999888  -0.001000016928  0  0  0
-0.0001999998931  -0.0004999999888  -1.788139343e-08  0  0  0
-0.0001999998931  -0.0004999999888  0.0009999871254  0  0  0
-0.0001999998931  -0.0004999999888  0.001999986172  0  0  0
-0.0001999998931  -0.0004999999888  0.002999985218  0  0  0
-0.0001999998931  -0.0004999999888  0.003999984264  0  0  0
-0.0001999998931  -0.0004999999888  0.004999983311  0  0  0
-0.0001999998931  -0.0004999999888  0.005999982357  0  0  0
-0.0001999998931  -0.0004999999888  0.006999981403  0  0  0
-0.0001999998931  -0.0004999999888  0.00799998045  0  0  0
-0.0001999998931  -0.0004999999888  0.008999979496  0  0  0
-0.0001999998931  -0.0004999999888  0.009999978542  0  0  0
-0.0001999998931  -0.0004999999888  0.01099997759  0  0  0
-0.0001999998931  -0.0004999999888  0.01199997663  0  0  0
-0.0001999998931  -0.0004999999888  0.01299997568  0  0  0
-0.0001999998931  -0.0004999999888  0.01399997473  0  0  0
-0.0001999998931  -0.0004999999888  0.01499997377  0  0  0
-0.0001999998931  -0.0004999999888  0.01599997282  0  0  0
-0.0001999998931  -0.0004999999888  0.01699997187  0  0  0
-0.0001999998931  -0.0004999999888  0.01799997091  0  0  0
-0.0001999998931  -0.0004999999888  0.01899996996  0  0  0
-0.0001999998931  -0.0004999999888  0.01999996901  0  0  0
-0.0001999998931  1.117587065e-11  -0.01999999881  0  0  0
-0.0001999998931  1.117587065e-11  -0.01899999976  0  0  0
-0.0001999998931  1.117587065e-11  -0.01800000072  0  0  0
-0.0001999998931  1.117587065e-11  -0.01700000167  0  0  0
-0.0001999998931  1.117587065e-11  -0.01600000262  0  0  0
-0.0001999998931  1.117587065e-11  -0.01500000358  0  0  0
-0.0001999998931  1.117587065e-11  -0.01400000453  0  0  0
-0.0001999998931  1.117587065e-11  -0.01300000548  0  0  0
-0.0001999998931  1.117587065e-11  -0.01200000644  0  0  0
-0.0001999998931  1.117587065e-11  -0.01100000739  0  0  0
-0.0001999998931  1.117587065e-11  -0.01000000834  0  0  0
-0.0001999998931  1.117587065e-11  -0.009000009298  0  0  0
-0.0001999998931  1.117587065e-11  -0.008000010252  0  0  0
-0.0001999998931  1.117587065e-11  -0.007000011206  0  0  0
-0.0001999998931  1.117587065e-11  -0.006000012159  0  0  0
-0.0001999998931  1.117587065e-11  -0.005000013113  0  0  0
-0.0001999998931  1.117587065e-11  -0.004000014067  0  0  0
-0.0001999998931  1.117587065e-11  -0.00300001502  0  0  0
-0.0001999998931  1.117587065e-11  -0.002000015974  0  0  0
-0.0001999998931  1.117587065e-11  -0.001000016928  0  0  0
-0.0001999998931  1.117587065e-11  -1.788139343e-08  0  0  0
-0.0001999998931  1.117587065e-11  0.0009999871254  0  0  0
-0.0001999998931  1.117587065e-11  0.001999986172  0  0  0
-0.0001999998931  1.117587065e-11  0.002999985218  0  0  0
-0.0001999998931  1.117587065e-11  0.003999984264  0  0  0
-0.0001999998931  1.117587065e-11  0.004999983311  0  0  0
-0.0001999998931  1.117587065e-11  0.005999982357  0  0  0
-0.0001999998931  1.117587065e-11  0.006999981403  0  0  0
-0.0001999998931  1.117587065e-11  0.00799998045  0  0  0
-0.0001999998931  1.117587065e-11  0.008999979496  0  0  0
-0.0001999998931  1.117587065e-11  0.009999978542  0  0  0
-0.0001999998931  1.117587065e-11  0.01099997759  0  0  0
-0.0001999998931  1.117587065e-11  0.01199997663  0  0  0
-0.0001999998931  1.117587065e-11  0.01299997568  0  0  0
-0.0001999998931  1.117587065e-11  0.01399997473  0  0  0
-0.0001999998931  1.117587065e-11  0.01499997377  0  0  0
-0.0001999998931  1.117587065e-11  0.01599997282  0  0  0
-0.0001999998931  1.117587065e-11  0.01699997187  0  0  0
-0.0001999998931  1.117587065e-11  0.01799997091  0  0  0
-0.0001999998931  1.117587065e-11  0.01899996996  0  0  0
-0.0001999998931  1.117587065e-11  0.01999996901  0  0  0
-0.0001999998931  0.0004999999888  -0.01999999881  0  0  0
-0.0001999998931  0.0004999999888  -0.01899999976  0  0  0
-0.0001999998931  0.0004999999888  -0.01800000072  0  0  0
-0.0001999998931  0.0004999999888  -0.01700000167  0  0  0
-0.0001999998931  0.0004999999888  -0.01600000262  0  0  0
-0.0001999998931  0.0004999999888  -0.01500000358  0  0  0
-0.0001999998931  0.0004999999888  -0.01400000453  0  0  0
-0.0001999998931  0.0004999999888  -0.01300000548  0  0  0
-0.0001999998931  0.0004999999888  -0.01200000644  0  0  0
-0.0001999998931  0.0004999999888  -0.01100000739  0  0  0
-0.0001999998931  0.0004999999888  -0.01000000834  0  0  0
-0.0001999998931  0.0004999999888  -0.009000009298  0  0  0
-0.0001999998931  0.0004999999888  -0.008000010252  0  0  0
-0.0001999998931  0.0004999999888  -0.007000011206  0  0  0
-0.0001999998931  0.0004999999888  -0.006000012159  0  0  0
-0.0001999998931  0.0004999999888  -0.005000013113  0  0  0
-0.0001999998931  0.0004999999888  -0.004000014067  0  0  0
-0.0001999998931  0.0004999999888  -0.00300001502  0  0  0
-0.0001999998931  0.0004999999888  -0.002000015974  0  0  0
-0.0001999998931  0.0004999999888  -0.001000016928  0  0  0
-0.0001999998931  0.0004999999888  -1.788139343e-08  0  0  0
-0.0001999998931  0.0004999999888  0.0009999871254  0  0  0
-0.0001999998931  0.0004999999888  0.001999986172  0  0  0
-0.0001999998931  0.0004999999888  0.002999985218  0  0  0
-0.0001999998931  0.0004999999888  0.003999984264  0  0  0
-0.0001999998931  0.0004999999888  0.004999983311  0  0  0
-0.0001999998931  0.0004999999888  0.005999982357  0  0  0
-0.0001999998931  0.0004999999888  0.006999981403  0  0  0
-0.0001999998931  0.0004999999888  0.00799998045  0  0  0
-0.0001999998931  0.0004999999888  0.008999979496  0  0  0
-0.0001999998931  0.0004999999888  0.009999978542  0  0  0
-0.0001999998931  0.0004999999888  0.01099997759  0  0  0
-0.0001999998931  0.0004999999888  0.01199997663  0  0  0
-0.0001999998931  0.0004999999888  0.01299997568  0  0  0
-0.0001999998931  0.0004999999888  0.01399997473  0  0  0
-0.0001999998931  0.0004999999888  0.01499997377  0  0  0
-0.0001999998931  0.0004999999888  0.01599997282  0  0  0
-0.0001999998931  0.0004999999888  0.01699997187  0  0  0
-0.0001999998931  0.0004999999888  0.01799997091  0  0  0
-0.0001999998931  0.0004999999888  0.01899996996  0  0  0
-0.0001999998931  0.0004999999888  0.01999996901  0  0  0
-0.0001999998931  0.0009999999776  -0.01999999881  0  0  0
-0.0001999998931  0.0009999999776  -0.01899999976  0  0  0
-0.0001999998931  0.0009999999776  -0.01800000072  0  0  0
-0.0001999998931  0.0009999999776  -0.01700000167  0  0  0
-0.0001999998931  0.0009999999776  -0.01600000262  0  0  0
-0.0001999998931  0.0009999999776  -0.01500000358  0  0  0
-0.0001999998931  0.0009999999776  -0.01400000453  0  0  0
-0.0001999998931  0.0009999999776  -0.01300000548  0  0  0
-0.0001999998931  0.0009999999776  -0.01200000644  0  0  0
-0.0001999998931  0.0009999999776  -0.01100000739  0  0  0
-0.0001999998931  0.0009999999776  -0.01000000834  0  0  0
-0.0001999998931  0.0009999999776  -0.009000009298  0  0  0
-0.0001999998931  0.0009999999776  -0.008000010252  0  0  0
-0.0001999998931  0.0009999999776  -0.007000011206  0  0  0
-0.0001999998931  0.0009999999776  -0.006000012159  0  0  0
-0.0001999998931  0.0009999999776  -0.005000013113  0  0  0
-0.0001999998931  0.0009999999776  -0.004000014067  0  0  0
-0.0001999998931  0.0009999999776  -0.00300001502  0  0  0
-0.0001999998931  0.0009999999776  -0.002000015974  0  0  0
-0.0001999998931  0.0009999999776  -0.001000016928  0  0  0
-0.0001999998931  0.0009999999776  -1.788139343e-08  0  0  0
-0.0001999998931  0.0009999999776  0.0009999871254  0  0  0
-0.0001999998931  0.0009999999776  0.001999986172  0  0  0
-0.0001999998931  0.0009999999776  0.002999985218  0  0  0
-0.0001999998931  0.0009999999776  0.003999984264  0  0  0
-0.0001999998931  0.0009999999776  0.004999983311  0  0  0
-0.0001999998931  0.0009999999776  0.005999982357  0  0  0
-0.0001999998931  0.0009999999776  0.006999981403  0  0  0
-0.0001999998931  0.0009999999776  0.00799998045  0  0  0
-0.0001999998931  0.0009999999776  0.008999979496  0  0  0
-0.0001999998931  0.0009999999776  0.009999978542  0  0  0
-0.0001999998931  0.0009999999776  0.01099997759  0  0  0
-0.0001999998931  0.0009999999776  0.01199997663  0  0  0
-0.0001999998931  0.0009999999776  0.01299997568  0  0  0
-0.0001999998931  0.0009999999776  0.01399997473  0  0  0
-0.0001999998931  0.0009999999776  0.01499997377  0  0  0
-0.0001999998931  0.0009999999776  0.01599997282  0  0  0
-0.0001999998931  0.0009999999776  0.01699997187  0  0  0
-0.0001999998931  0.0009999999776  0.01799997091  0  0  0
-0.0001999998931  0.0009999999776  0.01899996996  0  0  0
-0.0001999998931  0.0009999999776  0.01999996901  0  0  0
-9.999988833e-05  -0.0009999999776  -0.01999999881  0  0  0
-9.999988833e-05  -0.0009999999776  -0.01899999976  0  0  0
-9.999988833e-05  -0.0009999999776  -0.01800000072  0  0  0
-9.999988833e-05  -0.0009999999776  -0.01700000167  0  0  0
-9.999988833e-05  -0.0009999999776  -0.01600000262  0  0  0
-9.999988833e-05  -0.0009999999776  -0.01500000358  0  0  0
-9.999988833e-05  -0.0009999999776  -0.01400000453  0  0  0
-9.999988833e-05  -0.0009999999776  -0.01300000548  0  0  0
-9.999988833e-05  -0.0009999999776  -0.01200000644  0  0  0
-9.999988833e-05  -0.0009999999776  -0.01100000739  0  0  0
-9.999988833e-05  -0.0009999999776  -0.01000000834  0  0  0
-9.999988833e-05  -0.0009999999776  -0.009000009298  0  0  0
-9.999988833e-05  -0.0009999999776  -0.008000010252  0  0  0
-9.999988833e-05  -0.0009999999776  -0.007000011206  0  0  0
-9.999988833e-05  -0.0009999999776  -0.006000012159  0  0  0
-9.999988833e-05  -0.0009999999776  -0.005000013113  0  0  0
-9.999988833e-05  -0.0009999999776  -0.004000014067  0  0  0
-9.999988833e-05  -0.0009999999776  -0.00300001502  0  0  0
-9.999988833e-05  -0.0009999999776  -0.002000015974  0  0  0
-9.999988833e-05  -0.0009999999776  -0.001000016928  0  0  0
-9.999988833e-05  -0.0009999999776  -1.788139343e-08  0  0  0
-9.999988833e-05  -0.0009999999776  0.0009999871254  0  0  0
-9.999988833e-05  -0.0009999999776  0.001999986172  0  0  0
-9.999988833e-05  -0.0009999999776  0.002999985218  0  0  0
-9.999988833e-05  -0.0009999999776  0.003999984264  0  0  0
-9.999988833e-05  -0.0009999999776  0.004999983311  0  0  0
-9.999988833e-05  -0.0009999999776  0.005999982357  0  0  0
-9.999988833e-05  -0.0009999999776  0.006999981403  0  0  0
-9.999988833e-05  -0.0009999999776  0.00799998045  0  0  0
-9.999988833e-05  -0.0009999999776  0.008999979496  0  0  0
-9.999988833e-05  -0.0009999999776  0.009999978542  0  0  0
-9.999988833e-05  -0.0009999999776  0.01099997759  0  0  0
-9.999988833e-05  -0.0009999999776  0.01199997663  0  0  0
-9.999988833e-05  -0.0009999999776  0.01299997568  0  0  0
-9.999988833e-05  -0.0009999999776  0.01399997473  0  0  0
-9.999988833e-05  -0.0009999999776  0.01499997377  0  0  0
-9.999988833e-05  -0.0009999999776  0.01599997282  0  0  0
-9.999988833e-05  -0.0009999999776  0.01699997187  0  0  0
-9.999988833e-05  -0.0009999999776  0.01799997091  0  0  0
-9.999988833e-05  -0.0009999999776  0.01899996996  0  0  0
-9.999988833e-05  -0.0009999999776  0.01999996901  0  0  0
-9.999988833e-05  -0.0004999999888  -0.01999999881  0  0  0
-9.999988833e-05  -0.0004999999888  -0.01899999976  0  0  0
-9.999988833e-05  -0.0004999999888  -0.01800000072  0  0  0
-9.999988833e-05  -0.0004999999888  -0.01700000167  0  0  0
-9.999988833e-05  -0.0004999999888  -0.01600000262  0  0  0
-9.999988833e-05  -0.0004999999888  -0.01500000358  0  0  0
-9.999988833e-05  -0.0004999999888  -0.01400000453  0  0  0
-9.999988833e-05  -0.0004999999888  -0.01300000548  0  0  0
-9.999988833e-05  -0.0004999999888  -0.01200000644  0  0  0
-9.999988833e-05  -0.0004999999888  -0.01100000739  0  0  0
