-0.0003999998793  0.0005000000354  0.01600006819  0  0  0
-0.0003999998793  0.0005000000354  0.01680006981  0  0  0
-0.0003999998793  0.0005000000354  0.01760007143  0  0  0
-0.0003999998793  0.0005000000354  0.01840007305  0  0  0
-0.0003999998793  0.0005000000354  0.01920007467  0  0  0
-0.0003999998793  0.000800000038  -0.01999999881  0  0  0
-0.0003999998793  0.000800000038  -0.01919999719  0  0  0
-0.0003999998793  0.000800000038  -0.01839999557  0  0  0
-0.0003999998793  0.000800000038  -0.01759999394  0  0  0
-0.0003999998793  0.000800000038  -0.01679999232  0  0  0
-0.0003999998793  0.000800000038  -0.0159999907  0  0  0
-0.0003999998793  0.000800000038  -0.01519998908  0  0  0
-0.0003999998793  0.000800000038  -0.01439998746  0  0  0
-0.0003999998793  0.000800000038  -0.01359998584  0  0  0
-0.0003999998793  0.000800000038  -0.01279998422  0  0  0
-0.0003999998793  0.000800000038  -0.0119999826  0  0  0
-0.0003999998793  0.000800000038  -0.01119998097  0  0  0
-0.0003999998793  0.000800000038  -0.01039997935  0  0  0
-0.0003999998793  0.000800000038  -0.009599977732  0  0  0
-0.0003999998793  0.000800000038  -0.00879997611  0  0  0
-0.0003999998793  0.000800000038  -0.007999974489  0  0  0
-0.0003999998793  0.000800000038  -0.007199972868  0  0  0
-0.0003999998793  0.000800000038  -0.006399971247  0  0  0
-0.0003999998793  0.000800000038  -0.005599969625  0  0  0
-0.0003999998793  0.000800000038  -0.004799968004  0  0  0
-0.0003999998793  0.000800000038  -0.003999966383  0  0  0
-0.0003999998793  0.000800000038  -0.003199964762  0  0  0
-0.0003999998793  0.000800000038  -0.00239996314  0  0  0
-0.0003999998793  0.000800000038  -0.001599961519  0  0  0
-0.0003999998793  0.000800000038  -0.000799959898  0  0  0
-0.0003999998793  0.000800000038  3.576278687e-08  0  0  0
-0.0003999998793  0.000800000038  0.000800037384  0  0  0
-0.0003999998793  0.000800000038  0.001600039005  0  0  0
-0.0003999998793  0.000800000038  0.002400040627  0  0  0
-0.0003999998793  0.000800000038  0.003200042248  0  0  0
-0.0003999998793  0.000800000038  0.004000043869  0  0  0
-0.0003999998793  0.000800000038  0.00480004549  0  0  0
-0.0003999998793  0.000800000038  0.005600047112  0  0  0
-0.0003999998793  0.000800000038  0.006400048733  0  0  0
-0.0003999998793  0.000800000038  0.007200050354  0  0  0
-0.0003999998793  0.000800000038  0.008000051975  0  0  0
-0.0003999998793  0.000800000038  0.008800053596  0  0  0
-0.0003999998793  0.000800000038  0.009600055218  0  0  0
-0.0003999998793  0.000800000038  0.01040005684  0  0  0
-0.0003999998793  0.000800000038  0.01120005846  0  0  0
-0.0003999998793  0.000800000038  0.01200006008  0  0  0
-0.0003999998793  0.000800000038  0.0128000617  0  0  0
-0.0003999998793  0.000800000038  0.01360006332  0  0  0
-0.0003999998793  0.000800000038  0.01440006495  0  0  0
-0.0003999998793  0.000800000038  0.01520006657  0  0  0
-0.0003999998793  0.000800000038  0.01600006819  0  0  0
-0.0003999998793  0.000800000038  0.01680006981  0  0  0
-0.0003999998793  0.000800000038  0.01760007143  0  0  0
-0.0003999998793  0.000800000038  0.01840007305  0  0  0
-0.0003999998793  0.000800000038  0.01920007467  0  0  0
-0.0002999998862  -0.0009999999776  -0.01999999881  0  0  0
-0.0002999998862  -0.0009999999776  -0.01919999719  0  0  0
-0.0002999998862  -0.0009999999776  -0.01839999557  0  0  0
-0.0002999998862  -0.0009999999776  -0.01759999394  0  0  0
-0.0002999998862  -0.0009999999776  -0.01679999232  0  0  0
-0.0002999998862  -0.0009999999776  -0.0159999907  0  0  0
-0.0002999998862  -0.0009999999776  -0.01519998908  0  0  0
-0.0002999998862  -0.0009999999776  -0.01439998746  0  0  0
-0.0002999998862  -0.0009999999776  -0.01359998584  0  0  0
-0.0002999998862  -0.0009999999776  -0.01279998422  0  0  0
-0.0002999998862  -0.0009999999776  -0.0119999826  0  0  0
-0.0002999998862  -0.0009999999776  -0.01119998097  0  0  0
-0.0002999998862  -0.0009999999776  -0.01039997935  0  0  0
-0.0002999998862  -0.0009999999776  -0.009599977732  0  0  0
-0.0002999998862  -0.0009999999776  -0.00879997611  0  0  0
-0.0002999998862  -0.0009999999776  -0.007999974489  0  0  0
-0.0002999998862  -0.0009999999776  -0.007199972868  0  0  0
-0.0002999998862  -0.0009999999776  -0.006399971247  0  0  0
-0.0002999998862  -0.0009999999776  -0.005599969625  0  0  0
-0.0002999998862  -0.0009999999776  -0.004799968004  0  0  0
-0.0002999998862  -0.0009999999776  -0.003999966383  0  0  0
-0.0002999998862  -0.0009999999776  -0.003199964762  0  0  0
-0.0002999998862  -0.0009999999776  -0.00239996314  0  0  0
-0.0002999998862  -0.0009999999776  -0.001599961519  0  0  0
-0.0002999998862  -0.0009999999776  -0.000799959898  0  0  0
-0.0002999998862  -0.0009999999776  3.576278687e-08  0  0  0
-0.0002999998862  -0.0009999999776  0.000800037384  0  0  0
-0.0002999998862  -0.0009999999776  0.001600039005  0  0  0
-0.0002999998862  -0.0009999999776  0.002400040627  0  0  0
-0.0002999998862  -0.0009999999776  0.003200042248  0  0  0
-0.0002999998862  -0.0009999999776  0.004000043869  0  0  0
-0.0002999998862  -0.0009999999776  0.00480004549  0  0  0
-0.0002999998862  -0.0009999999776  0.005600047112  0  0  0
-0.0002999998862  -0.0009999999776  0.006400048733  0  0  0
-0.0002999998862  -0.0009999999776  0.007200050354  0  0  0
-0.0002999998862  -0.0009999999776  0.008000051975  0  0  0
-0.0002999998862  -0.0009999999776  0.008800053596  0  0  0
-0.0002999998862  -0.0009999999776  0.009600055218  0  0  0
-0.0002999998862  -0.0009999999776  0.01040005684  0  0  0
-0.0002999998862  -0.0009999999776  0.01120005846  0  0  0
-0.0002999998862  -0.0009999999776  0.01200006008  0  0  0
-0.0002999998862  -0.0009999999776  0.0128000617  0  0  0
-0.0002999998862  -0.0009999999776  0.01360006332  0  0  0
-0.0002999998862  -0.0009999999776  0.01440006495  0  0  0
-0.0002999998862  -0.0009999999776  0.01520006657  0  0  0
-0.0002999998862  -0.0009999999776  0.01600006819  0  0  0
-0.0002999998862  -0.0009999999776  0.01680006981  0  0  0
-0.0002999998862  -0.0009999999776  0.01760007143  0  0  0
-0.0002999998862  -0.0009999999776  0.01840007305  0  0  0
-0.0002999998862  -0.0009999999776  0.01920007467  0  0  0
-0.0002999998862  -0.000699999975  -0.01999999881  0  0  0
-0.0002999998862  -0.000699999975  -0.01919999719  0  0  0
-0.0002999998862  -0.000699999975  -0.01839999557  0  0  0
-0.0002999998862  -0.000699999975  -0.01759999394  0  0  0
-0.0002999998862  -0.000699999975  -0.01679999232  0  0  0
-0.0002999998862  -0.000699999975  -0.0159999907  0  0  0
-0.0002999998862  -0.000699999975  -0.01519998908  0  0  0
-0.0002999998862  -0.000699999975  -0.01439998746  0  0  0
-0.0002999998862  -0.000699999975  -0.01359998584  0  0  0
-0.0002999998862  -0.000699999975  -0.01279998422  0  0  0
-0.0002999998862  -0.000699999975  -0.0119999826  0  0  0
-0.0002999998862  -0.000699999975  -0.01119998097  0  0  0
-0.0002999998862  -0.000699999975  -0.01039997935  0  0  0
-0.0002999998862  -0.000699999975  -0.009599977732  0  0  0
-0.0002999998862  -0.000699999975  -0.00879997611  0  0  0
-0.0002999998862  -0.000699999975  -0.007999974489  0  0  0
-0.0002999998862  -0.000699999975  -0.007199972868  0  0  0
-0.0002999998862  -0.000699999975  -0.006399971247  0  0  0
-0.0002999998862  -0.000699999975  -0.005599969625  0  0  0
-0.0002999998862  -0.000699999975  -0.004799968004  0  0  0
-0.0002999998862  -0.000699999975  -0.003999966383  0  0  0
-0.0002999998862  -0.000699999975  -0.003199964762  0  0  0
-0.0002999998862  -0.000699999975  -0.00239996314  0  0  0
-0.0002999998862  -0.000699999975  -0.001599961519  0  0  0
-0.0002999998862  -0.000699999975  -0.000799959898  0  0  0
-0.0002999998862  -0.000699999975  3.576278687e-08  0  0  0
-0.0002999998862  -0.000699999975  0.000800037384  0  0  0
-0.0002999998862  -0.000699999975  0.001600039005  0  0  0
-0.0002999998862  -0.000699999975  0.002400040627  0  0  0
-0.0002999998862  -0.000699999975  0.003200042248  0  0  0
-0.0002999998862  -0.000699999975  0.004000043869  0  0  0
-0.0002999998862  -0.000699999975  0.00480004549  0  0  0
-0.0002999998862  -0.000699999975  0.005600047112  0  0  0
-0.0002999998862  -0.000699999975  0.006400048733  0  0  0
-0.0002999998862  -0.000699999975  0.007200050354  0  0  0
-0.0002999998862  -0.000699999975  0.008000051975  0  0  0
-0.0002999998862  -0.000699999975  0.008800053596  0  0  0
-0.0002999998862  -0.000699999975  0.009600055218  0  0  0
-0.0002999998862  -0.000699999975  0.01040005684  0  0  0
-0.0002999998862  -0.000699999975  0.01120005846  0  0  0
-0.0002999998862  -0.000699999975  0.01200006008  0  0  0
-0.0002999998862  -0.000699999975  0.0128000617  0  0  0
-0.0002999998862  -0.000699999975  0.01360006332  0  0  0
-0.0002999998862  -0.000699999975  0.01440006495  0  0  0
-0.0002999998862  -0.000699999975  0.01520006657  0  0  0
-0.0002999998862  -0.000699999975  0.01600006819  0  0  0
-0.0002999998862  -0.000699999975  0.01680006981  0  0  0
-0.0002999998862  -0.000699999975  0.01760007143  0  0  0
-0.0002999998862  -0.000699999975  0.01840007305  0  0  0
-0.0002999998862  -0.000699999975  0.01920007467  0  0  0
-0.0002999998862  -0.0003999999724  -0.01999999881  0  0  0
-0.0002999998862  -0.0003999999724  -0.01919999719  0  0  0
-0.0002999998862  -0.0003999999724  -0.01839999557  0  0  0
-0.0002999998862  -0.0003999999724  -0.01759999394  0  0  0
-0.0002999998862  -0.0003999999724  -0.01679999232  0  0  0
-0.0002999998862  -0.0003999999724  -0.0159999907  0  0  0
-0.0002999998862  -0.0003999999724  -0.01519998908  0  0  0
-0.0002999998862  -0.0003999999724  -0.01439998746  0  0  0
-0.0002999998862  -0.0003999999724  -0.01359998584  0  0  0
-0.0002999998862  -0.0003999999724  -0.01279998422  0  0  0
-0.0002999998862  -0.0003999999724  -0.0119999826  0  0  0
-0.0002999998862  -0.0003999999724  -0.01119998097  0  0  0
-0.0002999998862  -0.0003999999724  -0.01039997935  0  0  0
-0.0002999998862  -0.0003999999724  -0.009599977732  0  0  0
-0.0002999998862  -0.0003999999724  -0.00879997611  0  0  0
-0.0002999998862  -0.0003999999724  -0.007999974489  0  0  0
-0.0002999998862  -0.0003999999724  -0.007199972868  0  0  0
-0.0002999998862  -0.0003999999724  -0.006399971247  0  0  0
-0.0002999998862  -0.0003999999724  -0.005599969625  0  0  0
-0.0002999998862  -0.0003999999724  -0.004799968004  0  0  0
-0.0002999998862  -0.0003999999724  -0.003999966383  0  0  0
-0.0002999998862  -0.0003999999724  -0.003199964762  0  0  0
-0.0002999998862  -0.0003999999724  -0.00239996314  0  0  0
-0.0002999998862  -0.0003999999724  -0.001599961519  0  0  0
-0.0002999998862  -0.0003999999724  -0.000799959898  0  0  0
-0.0002999998862  -0.0003999999724  3.576278687e-08  0  0  0
-0.0002999998862  -0.0003999999724  0.000800037384  0  0  0
-0.0002999998862  -0.0003999999724  0.001600039005  0  0  0
-0.0002999998862  -0.0003999999724  0.002400040627  0  0  0
-0.0002999998862  -0.0003999999724  0.003200042248  0  0  0
-0.0002999998862  -0.0003999999724  0.004000043869  0  0  0
-0.0002999998862  -0.0003999999724  0.00480004549  0  0  0
-0.0002999998862  -0.0003999999724  0.005600047112  0  0  0
-0.0002999998862  -0.0003999999724  0.006400048733  0  0  0
-0.0002999998862  -0.0003999999724  0.007200050354  0  0  0
-0.0002999998862  -0.0003999999724  0.008000051975  0  0  0
-0.0002999998862  -0.0003999999724  0.008800053596  0  0  0
-0.0002999998862  -0.0003999999724  0.009600055218  0  0  0
-0.0002999998862  -0.0003999999724  0.01040005684  0  0  0
-0.0002999998862  -0.0003999999724  0.01120005846  0  0  0
-0.0002999998862  -0.0003999999724  0.01200006008  0  0  0
-0.0002999998862  -0.0003999999724  0.0128000617  0  0  0
-0.0002999998862  -0.0003999999724  0.01360006332  0  0  0
-0.0002999998862  -0.0003999999724  0.01440006495  0  0  0
-0.0002999998862  -0.0003999999724  0.01520006657  0  0  0
-0.0002999998862  -0.0003999999724  0.01600006819  0  0  0
-0.0002999998862  -0.0003999999724  0.01680006981  0  0  0
-0.0002999998862  -0.0003999999724  0.01760007143  0  0  0
-0.0002999998862  -0.0003999999724  0.01840007305  0  0  0
-0.0002999998862  -0.0003999999724  0.01920007467  0  0  0
-0.0002999998862  -9.999996983e-05  -0.01999999881  0  0  0
-0.0002999998862  -9.999996983e-05  -0.01919999719  0  0  0
-0.0002999998862  -9.999996983e-05  -0.01839999557  0  0  0
-0.0002999998862  -9.999996983e-05  -0.01759999394  0  0  0
-0.0002999998862  -9.999996983e-05  -0.01679999232  0  0  0
-0.0002999998862  -9.999996983e-05  -0.0159999907  0  0  0
-0.0002999998862  -9.999996983e-05  -0.01519998908  0  0  0
-0.0002999998862  -9.999996983e-05  -0.01439998746  0  0  0
-0.0002999998862  -9.999996983e-05  -0.01359998584  0  0  0
-0.0002999998862  -9.999996983e-05  -0.01279998422  0  0  0
-0.0002999998862  -9.999996983e-05  -0.0119999826  0  0  0
-0.0002999998862  -9.999996983e-05  -0.01119998097  0  0  0
-0.0002999998862  -9.999996983e-05  -0.01039997935  0  0  0
-0.0002999998862  -9.999996983e-05  -0.009599977732  0  0  0
-0.0002999998862  -9.999996983e-05  -0.00879997611  0  0  0
-0.0002999998862  -9.999996983e-05  -0.007999974489  0  0  0
-0.0002999998862  -9.999996983e-05  -0.007199972868  0  0  0
-0.0002999998862  -9.999996983e-05  -0.006399971247  0  0  0
-0.0002999998862  -9.999996983e-05  -0.005599969625  0  0  0
-0.0002999998862  -9.999996983e-05  -0.004799968004  0  0  0
-0.0002999998862  -9.999996983e-05  -0.003999966383  0  0  0
-0.0002999998862  -9.999996983e-05  -0.003199964762  0  0  0
-0.0002999998862  -9.999996983e-05  -0.00239996314  0  0  0
-0.0002999998862  -9.999996983e-05  -0.001599961519  0  0  0
-0.0002999998862  -9.999996983e-05  -0.000799959898  0  0  0
-0.0002999998862  -9.999996983e-05  3.576278687e-08  0  0  0
-0.0002999998862  -9.999996983e-05  0.000800037384  0  0  0
-0.0002999998862  -9.999996983e-05  0.001600039005  0  0  0
-0.0002999998862  -9.999996983e-05  0.002400040627  0  0  0
-0.0002999998862  -9.999996983e-05  0.003200042248  0  0  0
-0.0002999998862  -9.999996983e-05  0.004000043869  0  0  0
-0.0002999998862  -9.999996983e-05  0.00480004549  0  0  0
-0.0002999998862  -9.999996983e-05  0.005600047112  0  0  0
-0.0002999998862  -9.999996983e-05  0.006400048733  0  0  0
-0.0002999998862  -9.999996983e-05  0.007200050354  0  0  0
-0.0002999998862  -9.999996983e-05  0.008000051975  0  0  0
-0.0002999998862  -9.999996983e-05  0.008800053596  0  0  0
-0.0002999998862  -9.999996983e-05  0.009600055218  0  0  0
-0.0002999998862  -9.999996983e-05  0.01040005684  0  0  0
-0.0002999998862  -9.999996983e-05  0.01120005846  0  0  0
-0.0002999998862  -9.999996983e-05  0.01200006008  0  0  0
-0.0002999998862  -9.999996983e-05  0.0128000617  0  0  0
-0.0002999998862  -9.999996983e-05  0.01360006332  0  0  0
-0.0002999998862  -9.999996983e-05  0.01440006495  0  0  0
-0.0002999998862  -9.999996983e-05  0.01520006657  0  0  0
-0.0002999998862  -9.999996983e-05  0.01600006819  0  0  0
-0.0002999998862  -9.999996983e-05  0.01680006981  0  0  0
-0.0002999998862  -9.999996983e-05  0.01760007143  0  0  0
-0.0002999998862  -9.999996983e-05  0.01840007305  0  0  0
-0.0002999998862  -9.999996983e-05  0.01920007467  0  0  0
-0.0002999998862  0.0002000000328  -0.01999999881  0  0  0
-0.0002999998862  0.0002000000328  -0.01919999719  0  0  0
-0.0002999998862  0.0002000000328  -0.01839999557  0  0  0
-0.0002999998862  0.0002000000328  -0.01759999394  0  0  0
-0.0002999998862  0.0002000000328  -0.01679999232  0  0  0
-0.0002999998862  0.0002000000328  -0.0159999907  0  0  0
-0.0002999998862  0.0002000000328  -0.01519998908  0  0  0
-0.0002999998862  0.0002000000328  -0.01439998746  0  0  0
-0.0002999998862  0.0002000000328  -0.01359998584  0  0  0
-0.0002999998862  0.0002000000328  -0.01279998422  0  0  0
-0.0002999998862  0.0002000000328  -0.0119999826  0  0  0
-0.0002999998862  0.0002000000328  -0.01119998097  0  0  0
-0.0002999998862  0.0002000000328  -0.01039997935  0  0  0
-0.0002999998862  0.0002000000328  -0.009599977732  0  0  0
-0.0002999998862  0.0002000000328  -0.00879997611  0  0  0
-0.0002999998862  0.0002000000328  -0.007999974489  0  0  0
-0.0002999998862  0.0002000000328  -0.007199972868  0  0  0
-0.0002999998862  0.0002000000328  -0.006399971247  0  0  0
-0.0002999998862  0.0002000000328  -0.005599969625  0  0  0
-0.0002999998862  0.0002000000328  -0.004799968004  0  0  0
-0.0002999998862  0.0002000000328  -0.003999966383  0  0  0
-0.0002999998862  0.0002000000328  -0.003199964762  0  0  0
-0.0002999998862  0.0002000000328  -0.00239996314  0  0  0
-0.0002999998862  0.0002000000328  -0.001599961519  0  0  0
-0.0002999998862  0.0002000000328  -0.000799959898  0  0  0
-0.0002999998862  0.0002000000328  3.576278687e-08  0  0  0
-0.0002999998862  0.0002000000328  0.000800037384  0  0  0
-0.0002999998862  0.0002000000328  0.001600039005  0  0  0
-0.0002999998862  0.0002000000328  0.002400040627  0  0  0
-0.0002999998862  0.0002000000328  0.003200042248  0  0  0
-0.0002999998862  0.0002000000328  0.004000043869  0  0  0
-0.0002999998862  0.0002000000328  0.00480004549  0  0  0
-0.0002999998862  0.0002000000328  0.005600047112  0  0  0
-0.0002999998862  0.0002000000328  0.006400048733  0  0  0
-0.0002999998862  0.0002000000328  0.007200050354  0  0  0
-0.0002999998862  0.0002000000328  0.008000051975  0  0  0
-0.0002999998862  0.0002000000328  0.008800053596  0  0  0
-0.0002999998862  0.0002000000328  0.009600055218  0  0  0
-0.0002999998862  0.0002000000328  0.01040005684  0  0  0
-0.0002999998862  0.0002000000328  0.01120005846  0  0  0
-0.0002999998862  0.0002000000328  0.01200006008  0  0  0
-0.0002999998862  0.0002000000328  0.0128000617  0  0  0
-0.0002999998862  0.0002000000328  0.01360006332  0  0  0
-0.0002999998862  0.0002000000328  0.01440006495  0  0  0
-0.0002999998862  0.0002000000328  0.01520006657  0  0  0
-0.0002999998862  0.0002000000328  0.01600006819  0  0  0
-0.0002999998862  0.0002000000328  0.01680006981  0  0  0
-0.0002999998862  0.0002000000328  0.01760007143  0  0  0
-0.0002999998862  0.0002000000328  0.01840007305  0  0  0
-0.0002999998862  0.0002000000328  0.01920007467  0  0  0
-0.0002999998862  0.0005000000354  -0.01999999881  0  0  0
-0.0002999998862  0.0005000000354  -0.01919999719  0  0  0
-0.0002999998862  0.0005000000354  -0.01839999557  0  0  0
-0.0002999998862  0.0005000000354  -0.01759999394  0  0  0
-0.0002999998862  0.0005000000354  -0.01679999232  0  0  0
-0.0002999998862  0.0005000000354  -0.0159999907  0  0  0
-0.0002999998862  0.0005000000354  -0.01519998908  0  0  0
-0.0002999998862  0.0005000000354  -0.01439998746  0  0  0
-0.0002999998862  0.0005000000354  -0.01359998584  0  0  0
-0.0002999998862  0.0005000000354  -0.01279998422  0  0  0
-0.0002999998862  0.0005000000354  -0.0119999826  0  0  0
-0.0002999998862  0.0005000000354  -0.01119998097  0  0  0
-0.0002999998862  0.0005000000354  -0.01039997935  0  0  0
-0.0002999998862  0.0005000000354  -0.009599977732  0  0  0
-0.0002999998862  0.0005000000354  -0.00879997611  0  0  0
-0.0002999998862  0.0005000000354  -0.007999974489  0  0  0
-0.0002999998862  0.0005000000354  -0.007199972868  0  0  0
-0.0002999998862  0.0005000000354  -0.006399971247  0  0  0
-0.0002999998862  0.0005000000354  -0.005599969625  0  0  0
-0.0002999998862  0.0005000000354  -0.004799968004  0  0  0
-0.0002999998862  0.0005000000354  -0.003999966383  0  0  0
-0.0002999998862  0.0005000000354  -0.003199964762  0  0  0
-0.0002999998862  0.0005000000354  -0.00239996314  0  0  0
-0.0002999998862  0.0005000000354  -0.001599961519  0  0  0
-0.0002999998862  0.0005000000354  -0.000799959898  0  0  0
-0.0002999998862  0.0005000000354  3.576278687e-08  0  0  0
-0.0002999998862  0.0005000000354  0.000800037384  0  0  0
-0.0002999998862  0.0005000000354  0.001600039005  0  0  0
-0.0002999998862  0.0005000000354  0.002400040627  0  0  0
-0.0002999998862  0.0005000000354  0.003200042248  0  0  0
-0.0002999998862  0.0005000000354  0.004000043869  0  0  0
-0.0002999998862  0.0005000000354  0.00480004549  0  0  0
-0.0002999998862  0.0005000000354  0.005600047112  0  0  0
-0.0002999998862  0.0005000000354  0.006400048733  0  0  0
-0.0002999998862  0.0005000000354  0.007200050354  0  0  0
-0.0002999998862  0.0005000000354  0.008000051975  0  0  0
-0.0002999998862  0.0005000000354  0.008800053596  0  0  0
-0.0002999998862  0.0005000000354  0.009600055218  0  0  0
-0.0002999998862  0.0005000000354  0.01040005684  0  0  0
-0.0002999998862  0.0005000000354  0.01120005846  0  0  0
-0.0002999998862  0.0005000000354  0.01200006008  0  0  0
-0.0002999998862  0.0005000000354  0.0128000617  0  0  0
-0.0002999998862  0.0005000000354  0.01360006332  0  0  0
-0.0002999998862  0.0005000000354  0.01440006495  0  0  0
-0.0002999998862  0.0005000000354  0.01520006657  0  0  0
-0.0002999998862  0.0005000000354  0.01600006819  0  0  0
-0.0002999998862  0.0005000000354  0.01680006981  0  0  0
-0.0002999998862  0.0005000000354  0.01760007143  0  0  0
-0.0002999998862  0.0005000000354  0.01840007305  0  0  0
-0.0002999998862  0.0005000000354  0.01920007467  0  0  0
-0.0002999998862  0.000800000038  -0.01999999881  0  0  0
-0.0002999998862  0.000800000038  -0.01919999719  0  0  0
-0.0002999998862  0.000800000038  -0.01839999557  0  0  0
-0.0002999998862  0.000800000038  -0.01759999394  0  0  0
-0.0002999998862  0.000800000038  -0.01679999232  0  0  0
-0.0002999998862  0.000800000038  -0.0159999907  0  0  0
-0.0002999998862  0.000800000038  -0.01519998908  0  0  0
-0.0002999998862  0.000800000038  -0.01439998746  0  0  0
-0.0002999998862  0.000800000038  -0.01359998584  0  0  0
-0.0002999998862  0.000800000038  -0.01279998422  0  0  0
-0.0002999998862  0.000800000038  -0.0119999826  0  0  0
-0.0002999998862  0.000800000038  -0.01119998097  0  0  0
-0.0002999998862  0.000800000038  -0.01039997935  0  0  0
-0.0002999998862  0.000800000038  -0.009599977732  0  0  0
-0.0002999998862  0.000800000038  -0.00879997611  0  0  0
-0.0002999998862  0.000800000038  -0.007999974489  0  0  0
-0.0002999998862  0.000800000038  -0.007199972868  0  0  0
-0.0002999998862  0.000800000038  -0.006399971247  0  0  0
-0.0002999998862  0.000800000038  -0.005599969625  0  0  0
-0.0002999998862  0.000800000038  -0.004799968004  0  0  0
-0.0002999998862  0.000800000038  -0.003999966383  0  0  0
-0.0002999998862  0.000800000038  -0.003199964762  0  0  0
-0.0002999998862  0.000800000038  -0.00239996314  0  0  0
-0.0002999998862  0.000800000038  -0.001599961519  0  0  0
-0.0002999998862  0.000800000038  -0.000799959898  0  0  0
-0.0002999998862  0.000800000038  3.576278687e-08  0  0  0
-0.0002999998862  0.000800000038  0.000800037384  0  0  0
-0.0002999998862  0.000800000038  0.001600039005  0  0  0
-0.0002999998862  0.000800000038  0.002400040627  0  0  0
-0.0002999998862  0.000800000038  0.003200042248  0  0  0
-0.0002999998862  0.000800000038  0.004000043869  0  0  0
-0.0002999998862  0.000800000038  0.00480004549  0  0  0
-0.0002999998862  0.000800000038  0.005600047112  0  0  0
-0.0002999998862  0.000800000038  0.006400048733  0  0  0
-0.0002999998862  0.000800000038  0.007200050354  0  0  0
-0.0002999998862  0.000800000038  0.008000051975  0  0  0
-0.0002999998862  0.000800000038  0.008800053596  0  0  0
-0.0002999998862  0.000800000038  0.009600055218  0  0  0
-0.0002999998862  0.000800000038  0.01040005684  0  0  0
-0.0002999998862  0.000800000038  0.01120005846  0  0  0
-0.0002999998862  0.000800000038  0.01200006008  0  0  0
-0.0002999998862  0.000800000038  0.0128000617  0  0  0
-0.0002999998862  0.000800000038  0.01360006332  0  0  0
-0.0002999998862  0.000800000038  0.01440006495  0  0  0
-0.0002999998862  0.000800000038  0.01520006657  0  0  0
-0.0002999998862  0.000800000038  0.01600006819  0  0  0
-0.0002999998862  0.000800000038  0.01680006981  0  0  0
-0.0002999998862  0.000800000038  0.01760007143  0  0  0
-0.0002999998862  0.000800000038  0.01840007305  0  0  0
-0.0002999998862  0.000800000038  0.01920007467  0  0  0
-0.0001999998931  -0.0009999999776  -0.01999999881  0  0  0
-0.0001999998931  -0.0009999999776  -0.01919999719  0  0  0
-0.0001999998931  -0.0009999999776  -0.01839999557  0  0  0
-0.0001999998931  -0.0009999999776  -0.01759999394  0  0  0
-0.0001999998931  -0.0009999999776  -0.01679999232  0  0  0
-0.0001999998931  -0.0009999999776  -0.0159999907  0  0  0
-0.0001999998931  -0.0009999999776  -0.01519998908  0  0  0
-0.0001999998931  -0.0009999999776  -0.01439998746  0  0  0
-0.0001999998931  -0.0009999999776  -0.01359998584  0  0  0
-0.0001999998931  -0.0009999999776  -0.01279998422  0  0  0
-0.0001999998931  -0.0009999999776  -0.0119999826  0  0  0
-0.0001999998931  -0.0009999999776  -0.01119998097  0  0  0
-0.0001999998931  -0.0009999999776  -0.01039997935  0  0  0
-0.0001999998931  -0.0009999999776  -0.009599977732  0  0  0
-0.0001999998931  -0.0009999999776  -0.00879997611  0  0  0
-0.0001999998931  -0.0009999999776  -0.007999974489  0  0  0
-0.0001999998931  -0.0009999999776  -0.007199972868  0  0  0
-0.0001999998931  -0.0009999999776  -0.006399971247  0  0  0
-0.0001999998931  -0.0009999999776  -0.005599969625  0  0  0
-0.0001999998931  -0.0009999999776  -0.004799968004  0  0  0
-0.0001999998931  -0.0009999999776  -0.003999966383  0  0  0
-0.0001999998931  -0.0009999999776  -0.003199964762  0  0  0
-0.0001999998931  -0.0009999999776  -0.00239996314  0  0  0
-0.0001999998931  -0.0009999999776  -0.001599961519  0  0  0
-0.0001999998931  -0.0009999999776  -0.000799959898  0  0  0
-0.0001999998931  -0.0009999999776  3.576278687e-08  0  0  0
-0.0001999998931  -0.0009999999776  0.000800037384  0  0  0
-0.0001999998931  -0.0009999999776  0.001600039005  0  0  0
-0.0001999998931  -0.0009999999776  0.002400040627  0  0  0
-0.0001999998931  -0.0009999999776  0.003200042248  0  0  0
-0.0001999998931  -0.0009999999776  0.004000043869  0  0  0
-0.0001999998931  -0.0009999999776  0.00480004549  0  0  0
-0.0001999998931  -0.0009999999776  0.005600047112  0  0  0
-0.0001999998931  -0.0009999999776  0.006400048733  0  0  0
-0.0001999998931  -0.0009999999776  0.007200050354  0  0  0
-0.0001999998931  -0.0009999999776  0.008000051975  0  0  0
-0.0001999998931  -0.0009999999776  0.008800053596  0  0  0
-0.0001999998931  -0.0009999999776  0.009600055218  0  0  0
-0.0001999998931  -0.0009999999776  0.01040005684  0  0  0
-0.0001999998931  -0.0009999999776  0.01120005846  0  0  0
-0.0001999998931  -0.0009999999776  0.01200006008  0  0  0
-0.0001999998931  -0.0009999999776  0.0128000617  0  0  0
-0.0001999998931  -0.0009999999776  0.01360006332  0  0  0
-0.0001999998931  -0.0009999999776  0.01440006495  0  0  0
-0.0001999998931  -0.0009999999776  0.01520006657  0  0  0
-0.0001999998931  -0.0009999999776  0.01600006819  0  0  0
-0.0001999998931  -0.0009999999776  0.01680006981  0  0  0
-0.0001999998931  -0.0009999999776  0.01760007143  0  0  0
-0.0001999998931  -0.0009999999776  0.01840007305  0  0  0
-0.0001999998931  -0.0009999999776  0.01920007467  0  0  0
-0.0001999998931  -0.000699999975  -0.01999999881  0  0  0
-0.0001999998931  -0.000699999975  -0.01919999719  0  0  0
-0.0001999998931  -0.000699999975  -0.01839999557  0  0  0
-0.0001999998931  -0.000699999975  -0.01759999394  0  0  0
-0.0001999998931  -0.000699999975  -0.01679999232  0  0  0
-0.0001999998931  -0.000699999975  -0.0159999907  0  0  0
-0.0001999998931  -0.000699999975  -0.01519998908  0  0  0
-0.0001999998931  -0.000699999975  -0.01439998746  0  0  0
-0.0001999998931  -0.000699999975  -0.01359998584  0  0  0
-0.0001999998931  -0.000699999975  -0.01279998422  0  0  0
-0.0001999998931  -0.000699999975  -0.0119999826  0  0  0
-0.0001999998931  -0.000699999975  -0.01119998097  0  0  0
-0.0001999998931  -0.000699999975  -0.01039997935  0  0  0
-0.0001999998931  -0.000699999975  -0.009599977732  0  0  0
-0.0001999998931  -0.000699999975  -0.00879997611  0  0  0
-0.0001999998931  -0.000699999975  -0.007999974489  0  0  0
-0.0001999998931  -0.000699999975  -0.007199972868  0  0  0
-0.0001999998931  -0.000699999975  -0.006399971247  0  0  0
-0.0001999998931  -0.000699999975  -0.005599969625  0  0  0
-0.0001999998931  -0.000699999975  -0.004799968004  0  0  0
-0.0001999998931  -0.000699999975  -0.003999966383  0  0  0
-0.0001999998931  -0.000699999975  -0.003199964762  0  0  0
-0.0001999998931  -0.000699999975  -0.00239996314  0  0  0
-0.0001999998931  -0.000699999975  -0.001599961519  0  0  0
-0.0001999998931  -0.000699999975  -0.000799959898  0  0  0
-0.0001999998931  -0.000699999975  3.576278687e-08  0  0  0
-0.0001999998931  -0.000699999975  0.000800037384  0  0  0
-0.0001999998931  -0.000699999975  0.001600039005  0  0  0
-0.0001999998931  -0.000699999975  0.002400040627  0  0  0
-0.0001999998931  -0.000699999975  0.003200042248  0  0  0
-0.0001999998931  -0.000699999975  0.004000043869  0  0  0
-0.0001999998931  -0.000699999975  0.00480004549  0  0  0
-0.0001999998931  -0.000699999975  0.005600047112  0  0  0
-0.0001999998931  -0.000699999975  0.006400048733  0  0  0
-0.0001999998931  -0.000699999975  0.007200050354  0  0  0
-0.0001999998931  -0.000699999975  0.008000051975  0  0  0
-0.0001999998931  -0.000699999975  0.008800053596  0  0  0
-0.0001999998931  -0.000699999975  0.009600055218  0  0  0
-0.0001999998931  -0.000699999975  0.01040005684  0  0  0
-0.0001999998931  -0.000699999975  0.01120005846  0  0  0
-0.0001999998931  -0.000699999975  0.01200006008  0  0  0
-0.0001999998931  -0.000699999975  0.0128000617  0  0  0
-0.0001999998931  -0.000699999975  0.01360006332  0  0  0
-0.0001999998931  -0.000699999975  0.01440006495  0  0  0
-0.0001999998931  -0.000699999975  0.01520006657  0  0  0
-0.0001999998931  -0.000699999975  0.01600006819  0  0  0
-0.0001999998931  -0.000699999975  0.01680006981  0  0  0
-0.0001999998931  -0.000699999975  0.01760007143  0  0  0
-0.0001999998931  -0.000699999975  0.01840007305  0  0  0
-0.0001999998931  -0.000699999975  0.01920007467  0  0  0
-0.0001999998931  -0.0003999999724  -0.01999999881  0  0  0
-0.0001999998931  -0.0003999999724  -0.01919999719  0  0  0
-0.0001999998931  -0.0003999999724  -0.01839999557  0  0  0
-0.0001999998931  -0.0003999999724  -0.01759999394  0  0  0
-0.0001999998931  -0.0003999999724  -0.01679999232  0  0  0
-0.0001999998931  -0.0003999999724  -0.0159999907  0  0  0
-0.0001999998931  -0.0003999999724  -0.01519998908  0  0  0
-0.0001999998931  -0.0003999999724  -0.01439998746  0  0  0
-0.0001999998931  -0.0003999999724  -0.01359998584  0  0  0
-0.0001999998931  -0.0003999999724  -0.01279998422  0  0  0
-0.0001999998931  -0.0003999999724  -0.0119999826  0  0  0
-0.0001999998931  -0.0003999999724  -0.01119998097  0  0  0
-0.0001999998931  -0.0003999999724  -0.01039997935  0  0  0
-0.0001999998931  -0.0003999999724  -0.009599977732  0  0  0
-0.0001999998931  -0.0003999999724  -0.00879997611  0  0  0
-0.0001999998931  -0.0003999999724  -0.007999974489  0  0  0
-0.0001999998931  -0.0003999999724  -0.007199972868  0  0  0
-0.0001999998931  -0.0003999999724  -0.006399971247  0  0  0
-0.0001999998931  -0.0003999999724  -0.005599969625  0  0  0
-0.0001999998931  -0.0003999999724  -0.004799968004  0  0  0
-0.0001999998931  -0.0003999999724  -0.003999966383  0  0  0
-0.0001999998931  -0.0003999999724  -0.003199964762  0  0  0
-0.0001999998931  -0.0003999999724  -0.00239996314  0  0  0
-0.0001999998931  -0.0003999999724  -0.001599961519  0  0  0
-0.0001999998931  -0.0003999999724  -0.000799959898  0  0  0
-0.0001999998931  -0.0003999999724  3.576278687e-08  0  0  0
-0.0001999998931  -0.0003999999724  0.000800037384  0  0  0
-0.0001999998931  -0.0003999999724  0.001600039005  0  0  0
-0.0001999998931  -0.0003999999724  0.002400040627  0  0  0
-0.0001999998931  -0.0003999999724  0.003200042248  0  0  0
-0.0001999998931  -0.0003999999724  0.004000043869  0  0  0
-0.0001999998931  -0.0003999999724  0.00480004549  0  0  0
-0.0001999998931  -0.0003999999724  0.005600047112  0  0  0
-0.0001999998931  -0.0003999999724  0.006400048733  0  0  0
-0.0001999998931  -0.0003999999724  0.007200050354  0  0  0
-0.0001999998931  -0.0003999999724  0.008000051975  0  0  0
-0.0001999998931  -0.0003999999724  0.008800053596  0  0  0
-0.0001999998931  -0.0003999999724  0.009600055218  0  0  0
-0.0001999998931  -0.0003999999724  0.01040005684  0  0  0
-0.0001999998931  -0.0003999999724  0.01120005846  0  0  0
-0.0001999998931  -0.0003999999724  0.01200006008  0  0  0
-0.0001999998931  -0.0003999999724  0.0128000617  0  0  0
-0.0001999998931  -0.0003999999724  0.01360006332  0  0  0
-0.0001999998931  -0.0003999999724  0.01440006495  0  0  0
-0.0001999998931  -0.0003999999724  0.01520006657  0  0  0
-0.0001999998931  -0.0003999999724  0.01600006819  0  0  0
-0.0001999998931  -0.0003999999724  0.01680006981  0  0  0
-0.0001999998931  -0.0003999999724  0.01760007143  0  0  0
-0.0001999998931  -0.0003999999724  0.01840007305  0  0  0
-0.0001999998931  -0.0003999999724  0.01920007467  0  0  0
-0.0001999998931  -9.999996983e-05  -0.01999999881  0  0  0
-0.0001999998931  -9.999996983e-05  -0.01919999719  0  0  0
-0.0001999998931  -9.999996983e-05  -0.01839999557  0  0  0
-0.0001999998931  -9.999996983e-05  -0.01759999394  0  0  0
-0.0001999998931  -9.999996983e-05  -0.01679999232  0  0  0
-0.0001999998931  -9.999996983e-05  -0.0159999907  0  0  0
-0.0001999998931  -9.999996983e-05  -0.01519998908  0  0  0
-0.0001999998931  -9.999996983e-05  -0.01439998746  0  0  0
-0.0001999998931  -9.999996983e-05  -0.01359998584  0  0  0
-0.0001999998931  -9.999996983e-05  -0.01279998422  0  0  0
-0.0001999998931  -9.999996983e-05  -0.0119999826  0  0  0
-0.0001999998931  -9.999996983e-05  -0.01119998097  0  0  0
-0.0001999998931  -9.999996983e-05  -0.01039997935  0  0  0
-0.0001999998931  -9.999996983e-05  -0.009599977732  0  0  0
-0.0001999998931  -9.999996983e-05  -0.00879997611  0  0  0
-0.0001999998931  -9.999996983e-05  -0.007999974489  0  0  0
-0.0001999998931  -9.999996983e-05  -0.007199972868  0  0  0
-0.0001999998931  -9.999996983e-05  -0.006399971247  0  0  0
-0.0001999998931  -9.999996983e-05  -0.005599969625  0  0  0
-0.0001999998931  -9.999996983e-05  -0.004799968004  0  0  0
-0.0001999998931  -9.999996983e-05  -0.003999966383  0  0  0
-0.0001999998931  -9.999996983e-05  -0.003199964762  0  0  0
-0.0001999998931  -9.999996983e-05  -0.00239996314  0  0  0
-0.0001999998931  -9.999996983e-05  -0.001599961519  0  0  0
-0.0001999998931  -9.999996983e-05  -0.000799959898  0  0  0
-0.0001999998931  -9.999996983e-05  3.576278687e-08  0  0  0
-0.0001999998931  -9.999996983e-05  0.000800037384  0  0  0
-0.0001999998931  -9.999996983e-05  0.001600039005  0  0  0
-0.0001999998931  -9.999996983e-05  0.002400040627  0  0  0
-0.0001999998931  -9.999996983e-05  0.003200042248  0  0  0
-0.0001999998931  -9.999996983e-05  0.004000043869  0  0  0
-0.0001999998931  -9.999996983e-05  0.00480004549  0  0  0
-0.0001999998931  -9.999996983e-05  0.005600047112  0  0  0
-0.0001999998931  -9.999996983e-05  0.006400048733  0  0  0
-0.0001999998931  -9.999996983e-05  0.007200050354  0  0  0
-0.0001999998931  -9.999996983e-05  0.008000051975  0  0  0
-0.0001999998931  -9.999996983e-05  0.008800053596  0  0  0
-0.0001999998931  -9.999996983e-05  0.009600055218  0  0  0
-0.0001999998931  -9.999996983e-05  0.01040005684  0  0  0
-0.0001999998931  -9.999996983e-05  0.01120005846  0  0  0
-0.0001999998931  -9.999996983e-05  0.01200006008  0  0  0
-0.0001999998931  -9.999996983e-05  0.0128000617  0  0  0
-0.0001999998931  -9.999996983e-05  0.01360006332  0  0  0
-0.0001999998931  -9.999996983e-05  0.01440006495  0  0  0
-0.0001999998931  -9.999996983e-05  0.01520006657  0  0  0
-0.0001999998931  -9.999996983e-05  0.01600006819  0  0  0
-0.0001999998931  -9.999996983e-05  0.01680006981  0  0  0
-0.0001999998931  -9.999996983e-05  0.01760007143  0  0  0
-0.0001999998931  -9.999996983e-05  0.01840007305  0  0  0
-0.0001999998931  -9.999996983e-05  0.01920007467  0  0  0
-0.0001999998931  0.0002000000328  -0.01999999881  0  0  0
-0.0001999998931  0.0002000000328  -0.01919999719  0  0  0
-0.0001999998931  0.0002000000328  -0.01839999557  0  0  0
-0.0001999998931  0.0002000000328  -0.01759999394  0  0  0
-0.0001999998931  0.0002000000328  -0.01679999232  0  0  0
-0.0001999998931  0.0002000000328  -0.0159999907  0  0  0
-0.0001999998931  0.0002000000328  -0.01519998908  0  0  0
-0.0001999998931  0.0002000000328  -0.01439998746  0  0  0
-0.0001999998931  0.0002000000328  -0.01359998584  0  0  0
-0.0001999998931  0.0002000000328  -0.01279998422  0  0  0
-0.0001999998931  0.0002000000328  -0.0119999826  0  0  0
-0.0001999998931  0.0002000000328  -0.01119998097  0  0  0
-0.0001999998931  0.0002000000328  -0.01039997935  0  0  0
-0.0001999998931  0.0002000000328  -0.009599977732  0  0  0
-0.0001999998931  0.0002000000328  -0.00879997611  0  0  0
-0.0001999998931  0.0002000000328  -0.007999974489  0  0  0
-0.0001999998931  0.0002000000328  -0.007199972868  0  0  0
-0.0001999998931  0.0002000000328  -0.006399971247  0  0  0
-0.0001999998931  0.0002000000328  -0.005599969625  0  0  0
-0.0001999998931  0.0002000000328  -0.004799968004  0  0  0
-0.0001999998931  0.0002000000328  -0.003999966383  0  0  0
-0.0001999998931  0.0002000000328  -0.003199964762  0  0  0
-0.0001999998931  0.0002000000328  -0.00239996314  0  0  0
-0.0001999998931  0.0002000000328  -0.001599961519  0  0  0
-0.0001999998931  0.0002000000328  -0.000799959898  0  0  0
-0.0001999998931  0.0002000000328  3.576278687e-08  0  0  0
-0.0001999998931  0.0002000000328  0.000800037384  0  0  0
-0.0001999998931  0.0002000000328  0.001600039005  0  0  0
-0.0001999998931  0.0002000000328  0.002400040627  0  0  0
-0.0001999998931  0.0002000000328  0.003200042248  0  0  0
-0.0001999998931  0.0002000000328  0.004000043869  0  0  0
-0.0001999998931  0.0002000000328  0.00480004549  0  0  0
-0.0001999998931  0.0002000000328  0.005600047112  0  0  0
-0.0001999998931  0.0002000000328  0.006400048733  0  0  0
-0.0001999998931  0.0002000000328  0.007200050354  0  0  0
-0.0001999998931  0.0002000000328  0.008000051975  0  0  0
-0.0001999998931  0.0002000000328  0.008800053596  0  0  0
-0.0001999998931  0.0002000000328  0.009600055218  0  0  0
-0.0001999998931  0.0002000000328  0.01040005684  0  0  0
-0.0001999998931  0.0002000000328  0.01120005846  0  0  0
-0.0001999998931  0.0002000000328  0.01200006008  0  0  0
-0.0001999998931  0.0002000000328  0.0128000617  0  0  0
-0.0001999998931  0.0002000000328  0.01360006332  0  0  0
-0.0001999998931  0.0002000000328  0.01440006495  0  0  0
-0.0001999998931  0.0002000000328  0.01520006657  0  0  0
-0.0001999998931  0.0002000000328  0.01600006819  0  0  0
-0.0001999998931  0.0002000000328  0.01680006981  0  0  0
-0.0001999998931  0.0002000000328  0.01760007143  0  0  0
-0.0001999998931  0.0002000000328  0.01840007305  0  0  0
-0.0001999998931  0.0002000000328  0.01920007467  0  0  0
-0.0001999998931  0.0005000000354  -0.01999999881  0  0  0
-0.0001999998931  0.0005000000354  -0.01919999719  0  0  0
-0.0001999998931  0.0005000000354  -0.01839999557  0  0  0
-0.0001999998931  0.0005000000354  -0.01759999394  0  0  0
-0.0001999998931  0.0005000000354  -0.01679999232  0  0  0
-0.0001999998931  0.0005000000354  -0.0159999907  0  0  0
-0.0001999998931  0.0005000000354  -0.01519998908  0  0  0
-0.0001999998931  0.0005000000354  -0.01439998746  0  0  0
-0.0001999998931  0.0005000000354  -0.01359998584  0  0  0
-0.0001999998931  0.0005000000354  -0.01279998422  0  0  0
-0.0001999998931  0.0005000000354  -0.0119999826  0  0  0
-0.0001999998931  0.0005000000354  -0.01119998097  0  0  0
-0.0001999998931  0.0005000000354  -0.01039997935  0  0  0
-0.0001999998931  0.0005000000354  -0.009599977732  0  0  0
-0.0001999998931  0.0005000000354  -0.00879997611  0  0  0
-0.0001999998931  0.0005000000354  -0.007999974489  0  0  0
-0.0001999998931  0.0005000000354  -0.007199972868  0  0  0
-0.0001999998931  0.0005000000354  -0.006399971247  0  0  0
-0.0001999998931  0.0005000000354  -0.005599969625  0  0  0
-0.0001999998931  0.0005000000354  -0.004799968004  0  0  0
-0.0001999998931  0.0005000000354  -0.003999966383  0  0  0
-0.0001999998931  0.0005000000354  -0.003199964762  0  0  0
-0.0001999998931  0.0005000000354  -0.00239996314  0  0  0
-0.0001999998931  0.0005000000354  -0.001599961519  0  0  0
-0.0001999998931  0.0005000000354  -0.000799959898  0  0  0
-0.0001999998931  0.0005000000354  3.576278687e-08  0  0  0
-0.0001999998931  0.0005000000354  0.000800037384  0  0  0
-0.0001999998931  0.0005000000354  0.001600039005  0  0  0
-0.0001999998931  0.0005000000354  0.002400040627  0  0  0
-0.0001999998931  0.0005000000354  0.003200042248  0  0  0
-0.0001999998931  0.0005000000354  0.004000043869  0  0  0
-0.0001999998931  0.0005000000354  0.00480004549  0  0  0
-0.0001999998931  0.0005000000354  0.005600047112  0  0  0
-0.0001999998931  0.0005000000354  0.006400048733  0  0  0
-0.0001999998931  0.0005000000354  0.007200050354  0  0  0
-0.0001999998931  0.0005000000354  0.008000051975  0  0  0
-0.0001999998931  0.0005000000354  0.008800053596  0  0  0
-0.0001999998931  0.0005000000354  0.009600055218  0  0  0
-0.0001999998931  0.0005000000354  0.01040005684  0  0  0
-0.0001999998931  0.0005000000354  0.01120005846  0  0  0
-0.0001999998931  0.0005000000354  0.01200006008  0  0  0
-0.0001999998931  0.0005000000354  0.0128000617  0  0  0
-0.0001999998931  0.0005000000354  0.01360006332  0  0  0
-0.0001999998931  0.0005000000354  0.01440006495  0  0  0
-0.0001999998931  0.0005000000354  0.01520006657  0  0  0
-0.0001999998931  0.0005000000354  0.01600006819  0  0  0
-0.0001999998931  0.0005000000354  0.01680006981  0  0  0
-0.0001999998931  0.0005000000354  0.01760007143  0  0  0
-0.0001999998931  0.0005000000354  0.01840007305  0  0  0
-0.0001999998931  0.0005000000354  0.01920007467  0  0  0
-0.0001999998931  0.000800000038  -0.01999999881  0  0  0
-0.0001999998931  0.000800000038  -0.01919999719  0  0  0
-0.0001999998931  0.000800000038  -0.01839999557  0  0  0
-0.0001999998931  0.000800000038  -0.01759999394  0  0  0
-0.0001999998931  0.000800000038  -0.01679999232  0  0  0
-0.0001999998931  0.000800000038  -0.0159999907  0  0  0
-0.0001999998931  0.000800000038  -0.01519998908  0  0  0
-0.0001999998931  0.000800000038  -0.01439998746  0  0  0
-0.0001999998931  0.000800000038  -0.01359998584  0  0  0
-0.0001999998931  0.000800000038  -0.01279998422  0  0  0
-0.0001999998931  0.000800000038  -0.0119999826  0  0  0
-0.0001999998931  0.000800000038  -0.01119998097  0  0  0
-0.0001999998931  0.000800000038  -0.01039997935  0  0  0
-0.0001999998931  0.000800000038  -0.009599977732  0  0  0
-0.0001999998931  0.000800000038  -0.00879997611  0  0  0
-0.0001999998931  0.000800000038  -0.007999974489  0  0  0
-0.0001999998931  0.000800000038  -0.007199972868  0  0  0
-0.0001999998931  0.000800000038  -0.006399971247  0  0  0
-0.0001999998931  0.000800000038  -0.005599969625  0  0  0
-0.0001999998931  0.000800000038  -0.004799968004  0  0  0
-0.0001999998931  0.000800000038  -0.003999966383  0  0  0
-0.0001999998931  0.000800000038  -0.003199964762  0  0  0
-0.0001999998931  0.000800000038  -0.00239996314  0  0  0
-0.0001999998931  0.000800000038  -0.001599961519  0  0  0
-0.0001999998931  0.000800000038  -0.000799959898  0  0  0
-0.0001999998931  0.000800000038  3.576278687e-08  0  0  0
-0.0001999998931  0.000800000038  0.000800037384  0  0  0
-0.0001999998931  0.000800000038  0.001600039005  0  0  0
-0.0001999998931  0.000800000038  0.002400040627  0  0  0
-0.0001999998931  0.000800000038  0.003200042248  0  0  0
-0.0001999998931  0.000800000038  0.004000043869  0  0  0
-0.0001999998931  0.000800000038  0.00480004549  0  0  0
-0.0001999998931  0.000800000038  0.005600047112  0  0  0
-0.0001999998931  0.000800000038  0.006400048733  0  0  0
-0.0001999998931  0.000800000038  0.007200050354  0  0  0
-0.0001999998931  0.000800000038  0.008000051975  0  0  0
-0.0001999998931  0.000800000038  0.008800053596  0  0  0
-0.0001999998931  0.000800000038  0.009600055218  0  0  0
-0.0001999998931  0.000800000038  0.01040005684  0  0  0
-0.0001999998931  0.000800000038  0.01120005846  0  0  0
-0.0001999998931  0.000800000038  0.01200006008  0  0  0
-0.0001999998931  0.000800000038  0.0128000617  0  0  0
-0.0001999998931  0.000800000038  0.01360006332  0  0  0
-0.0001999998931  0.000800000038  0.01440006495  0  0  0
-0.0001999998931  0.000800000038  0.01520006657  0  0  0
-0.0001999998931  0.000800000038  0.01600006819  0  0  0
-0.0001999998931  0.000800000038  0.01680006981  0  0  0
-0.0001999998931  0.000800000038  0.01760007143  0  0  0
-0.0001999998931  0.000800000038  0.01840007305  0  0  0
-0.0001999998931  0.000800000038  0.01920007467  0  0  0
-9.999988833e-05  -0.0009999999776  -0.01999999881  0  0  0
-9.999988833e-05  -0.0009999999776  -0.01919999719  0  0  0
-9.999988833e-05  -0.0009999999776  -0.01839999557  0  0  0
-9.999988833e-05  -0.0009999999776  -0.01759999394  0  0  0
-9.999988833e-05  -0.0009999999776  -0.01679999232  0  0  0
-9.999988833e-05  -0.0009999999776  -0.0159999907  0  0  0
-9.999988833e-05  -0.0009999999776  -0.01519998908  0  0  0
-9.999988833e-05  -0.0009999999776  -0.01439998746  0  0  0
-9.999988833e-05  -0.0009999999776  -0.01359998584  0  0  0
-9.999988833e-05  -0.0009999999776  -0.01279998422  0  0  0
-9.999988833e-05  -0.0009999999776  -0.0119999826  0  0  0
-9.999988833e-05  -0.0009999999776  -0.01119998097  0  0  0
-9.999988833e-05  -0.0009999999776  -0.01039997935  0  0  0
-9.999988833e-05  -0.0009999999776  -0.009599977732  0  0  0
-9.999988833e-05  -0.0009999999776  -0.00879997611  0  0  0
-9.999988833e-05  -0.0009999999776  -0.007999974489  0  0  0
-9.999988833e-05  -0.0009999999776  -0.007199972868  0  0  0
-9.999988833e-05  -0.0009999999776  -0.006399971247  0  0  0
-9.999988833e-05  -0.0009999999776  -0.005599969625  0  0  0
-9.999988833e-05  -0.0009999999776  -0.004799968004  0  0  0
-9.999988833e-05  -0.0009999999776  -0.003999966383  0  0  0
-9.999988833e-05  -0.0009999999776  -0.003199964762  0  0  0
-9.999988833e-05  -0.0009999999776  -0.00239996314  0  0  0
-9.999988833e-05  -0.0009999999776  -0.001599961519  0  0  0
-9.999988833e-05  -0.0009999999776  -0.000799959898  0  0  0
-9.999988833e-05  -0.0009999999776  3.576278687e-08  0  0  0
-9.999988833e-05  -0.0009999999776  0.000800037384  0  0  0
-9.999988833e-05  -0.0009999999776  0.001600039005  0  0  0
-9.999988833e-05  -0.0009999999776  0.002400040627  0  0  0
-9.999988833e-05  -0.0009999999776  0.003200042248  0  0  0
-9.999988833e-05  -0.0009999999776  0.004000043869  0  0  0
-9.999988833e-05  -0.0009999999776  0.00480004549  0  0  0
-9.999988833e-05  -0.0009999999776  0.005600047112  0  0  0
-9.999988833e-05  -0.0009999999776  0.006400048733  0  0  0
-9.999988833e-05  -0.0009999999776  0.007200050354  0  0  0
-9.999988833e-05  -0.0009999999776  0.008000051975  0  0  0
-9.999988833e-05  -0.0009999999776  0.008800053596  0  0  0
-9.999988833e-05  -0.0009999999776  0.009600055218  0  0  0
-9.999988833e-05  -0.0009999999776  0.01040005684  0  0  0
-9.999988833e-05  -0.0009999999776  0.01120005846  0  0  0
-9.999988833e-05  -0.0009999999776  0.01200006008  0  0  0
-9.999988833e-05  -0.0009999999776  0.0128000617  0  0  0
-9.999988833e-05  -0.0009999999776  0.01360006332  0  0  0
-9.999988833e-05  -0.0009999999776  0.01440006495  0  0  0
-9.999988833e-05  -0.0009999999776  0.01520006657  0  0  0
-9.999988833e-05  -0.0009999999776  0.01600006819  0  0  0
-9.999988833e-05  -0.0009999999776  0.01680006981  0  0  0
-9.999988833e-05  -0.0009999999776  0.01760007143  0  0  0
-9.999988833e-05  -0.0009999999776  0.01840007305  0  0  0
-9.999988833e-05  -0.0009999999776  0.01920007467  0  0  0
-9.999988833e-05  -0.000699999975  -0.01999999881  0  0  0
-9.999988833e-05  -0.000699999975  -0.01919999719  0  0  0
-9.999988833e-05  -0.000699999975  -0.01839999557  0  0  0
-9.999988833e-05  -0.000699999975  -0.01759999394  0  0  0
-9.999988833e-05  -0.000699999975  -0.01679999232  0  0  0
-9.999988833e-05  -0.000699999975  -0.0159999907  0  0  0
